ncols         340
nrows         31
xllcorner     5455.81776888
yllcorner     1860.15714389
cellsize      5
NODATA_value  -9999
975.4551 977.9852 980.6383 982.9288 984.4639 985.129 985.794 986.4591 987.1241 988.6015 990.7708 992.794 994.8173 996.8405 998.6378 1001.185 1004.321 1007.456 1010.413 1012.324 1014.235 1016.146 1017.953 1019.756 1021.37 1022.808 1024.143 1024.859 1024.458 1024.058 1023.271 1022.037 1020.535 1017.018 1013.188 1010.122 1009.247 1008.024 1006.799 1005.794 1004.873 1003.893 1002.945 1002.099 1001.278 1000.417 999.3442 998.0833 996.7493 995.4587 994.1794 992.9451 991.4529 989.9247 987.9388 985.2615 982.8081 979.5445 976.7401 975.0726 974.3743 974.1589 973.5306 972.7979 972.0212 970.9233 969.7001 967.8314 965.6783 963.371 961.0637 959.2628 957.2937 954.564 950.8826 946.7243 942.6289 939.2185 936.8366 937.6375 939.486 941.8738 943.1724 944.2328 944.501 946.4564 950.0211 952.5225 954.8274 956.6312 958.4311 959.9745 962.3756 964.7888 967.2803 969.879 973.0475 975.4932 975.0811 976.8977 978.4239 978.9465 977.8294 976.1702 974.5109 972.8517 971.0853 968.5887 965.5026 962.4164 958.94 953.576 948.8628 943.148 936.6843 930.9418 927.9935 924.6871 921.3807 917.9958 914.7058 913.7982 917.6529 922.2502 928.0231 932.6891 936.7738 941.5325 945.9284 950.0546 952.1398 954.8038 958.1962 958.9581 959.6479 960.1691 960.7697 961.275 961.2748 961.6265 962.2103 962.8228 963.2953 964.3615 966.1232 967.8849 967.7975 966.2454 965.2334 963.9714 962.1281 960.4266 957.4133 954.2471 951.1484 950 950 950.2366 950.685 950.4666 950.114 949.0266 947.7707 945.6523 942.8301 939.8805 938.2099 935.7968 937.4163 940.2885 941.7606 942.9492 944.1301 944.8536 944.6606 944.4676 944.2747 944.0817 944.6511 946.2809 948.421 950.5712 951.8823 952.2791 952.0876 951.8962 951.9258 952.4537 954.4138 955.6191 957.3361 959.6594 962.813 965.8403 967.6639 969.3784 970.9499 972.5883 974.2267 975.7398 977.2263 978.8885 980.2372 981.2684 982.7025 984.396 986.0895 987.0282 987.4454 987.9391 988.6908 988.8826 989.0798 990.9153 991.4158 993.8638 996.3506 998.568 1000.457 1001.972 1003.247 1004.603 1006.001 1007.4 1008.798 1010.264 1011.932 1012.958 1014.224 1014.81 1015.599 1015.174 1014.229 1013.283 1012.404 1010.767 1008.628 1006.115 1003.313 1000.51 997.8259 995.4214 993.038 990.6547 987.6193 985.0655 983.3272 981.9327 980.533 979.3092 977.3256 975.4661 973.8705 972.6431 969.9076 967.5292 965.2401 962.9845 959.7068 957.4131 953.4921 949.8204 946.3976 944.0173 940.7758 940 939.3103 935.9535 933.8127 933.3282 934.6658 936.1445 935.5676 934.4462 930.4471 929.2789 927.4744 925.4315 923.7726 921.2533 921.9544 923.1613 922.5301 923.0391 923.7751 924.6511 925.9413 926.9966 927.2551 927.3205 927.5736 927.6759 927.7606 926.1373 924.52 921.1027 917.6035 914.0865 910.5695 905.7095 900.5123 897.4371 894.5941 891.751 889.2614 887.2915 888.2948 890.4344 892.962 895.4896 897.9482 900.232 902.1201 903.9326 905.7451 907.5577 907.9197 907.8454 906.9922 906.1795 905.5464 905.3394 903.8949 902.0262 900.3839 903.6406 905.6305 907.4849 909.9454 912.7388 915.5377 918.3429 921.7479 925.9144 930.0619 933.732 937.5402 940.8569 943.3077 945.712
976.863 978.4028 980.7329 983.2448 984.8671 985.8589 986.8508 987.8427 988.8013 989.4664 991.1389 993.1119 995.0282 996.9445 998.9861 1001.958 1005.301 1008.436 1010.907 1012.716 1014.526 1016.426 1018.35 1020.262 1022.004 1023.588 1025.049 1026.208 1026.061 1025.661 1024.519 1023.498 1021.688 1020.282 1017.099 1013.479 1011.291 1009.249 1008.024 1007.112 1006.155 1005.207 1004.292 1003.471 1002.612 1001.735 1000.819 999.8943 998.5732 997.3236 996.0893 994.7208 993.2038 991.821 990.2695 988.0678 984.3763 980.4841 978.5934 977.2396 976.5217 976.2335 975.3752 974.6425 973.5783 972.4785 971.3788 970.279 968.11 965.667 963.396 961.885 960.0162 956.9177 953.6469 949.7892 945.7532 941.6207 938.78 936.0439 936.5611 938.2884 939.4168 940.0642 940.9449 942.5255 946.546 950.5816 952.6984 954.1736 955.6333 957.2669 958.8998 960.7872 963.6497 966.8657 969.0649 971.9595 972.9719 975.0956 976.6147 978.0364 978.1962 976.537 974.8777 973.1102 971.1006 968.5977 965.5115 962.4477 960.6042 956.9023 952.595 946.7292 940.3621 934.6182 929.1159 925.8536 922.4044 918.5961 914.8979 913.7884 918.0515 922.8451 928.6014 933.1489 938.0428 943.1789 948.4763 951.5612 954.0156 956.7748 957.5586 957.4692 957.3798 958.1444 959.0084 959.1489 959.1486 959.5476 960.4363 961.0793 962.4806 964.2423 966.004 967.7657 966.9117 965.3594 963.8072 962.8104 961.1251 959.1326 956.772 953.6866 950.6012 947.2467 946.8939 945.3486 945.8608 945.424 944.4679 942.8987 941.434 939.3245 937.8158 936.6768 934.8549 934.3386 937.5999 940.488 942.3865 944.0414 945.23 946.3823 946.9708 946.7778 946.5848 946.96 947.5236 948.3886 948.6036 949.7536 950.3387 950.8666 951.3945 951.9224 952.4503 953.6151 957.1799 958.3855 959.5884 960.7242 964.1047 967.2518 970 971.6237 973.2756 974.7136 976.2433 977.8337 979.2991 980.324 980.9985 981.7206 982.6168 984.0878 985.7814 986.3578 986.9619 987.1462 987.0923 986.9798 986.2589 987.7427 988.4743 990.5118 992.967 995.5732 998.4069 1000.266 1001.525 1002.923 1004.23 1005.517 1006.803 1008.375 1010.067 1011.333 1012.6 1013.258 1014.026 1013.768 1012.822 1011.877 1010.931 1009.958 1007.682 1005.405 1003.129 1000.852 998.218 995.5603 992.9025 990.3369 987.1817 983.8995 980.6459 980 977.5061 974.9694 972.9638 970.3517 969.1582 968.0867 966.7781 964.4271 960.7203 957.6144 955.3207 952.8351 948.5215 944.4786 941.9053 942.8444 941.9682 941.2205 941.7086 940.532 937.9952 937.6729 939.3167 941.4942 942.8726 943.0624 940.991 935.7252 932.0211 929.4771 927.3932 924.5952 921.7973 920.2678 919.5432 920.0936 920.8296 922.088 923.2415 924.1351 923.806 924.5754 925.011 925.1133 925.2043 924.3099 922.1169 919.4973 916.4971 913.9965 911.4959 907.912 902.7125 898.6401 895.7971 892.912 889.9629 887.8749 887.6556 889.7148 892.1775 894.7051 897.2316 899.7302 901.7423 903.5548 905.3674 906.8844 906.997 906.1439 905.2908 904.4377 903.7894 903.5324 902.9338 901.0651 900.276 904.262 907.3361 909.326 911.8994 914.7971 917.7227 920.9343 925.1013 928.811 932.2796 935.4695 939.1784 941.9724 944.4866 946.9841
978.2464 979.251 979.9504 982.0546 983.3818 984.3737 985.3656 986.3575 987.3045 988.1119 990.7958 992.7122 994.689 996.8646 999.0403 1002.049 1005.704 1009.064 1011.433 1013.287 1015.096 1016.904 1018.713 1020.671 1022.281 1024.116 1025.806 1027.29 1027.664 1027.001 1026.143 1024.607 1023.229 1021.812 1020.395 1017.39 1014.625 1011.292 1009.364 1008.417 1007.469 1006.521 1005.664 1004.807 1003.929 1002.924 1001.929 1001.082 1000.292 999.2335 997.9886 996.5215 995.325 993.8755 992.2991 990.0591 986.6385 983.6014 980.761 979.4254 978.6971 978.0452 977.2198 976.23 975.1335 974.0338 972.8956 971.6209 970.1495 967.8052 965.958 964.1009 962.2087 959.9371 956.6361 952.4893 948.2255 944.3834 941.1946 937.9934 934.9231 935.4216 936.2246 936.85 937.9683 939.2037 942.7143 947.1528 949.8702 951.2913 952.9258 954.5593 956.1924 958.2967 961.6019 963.6011 966.0024 968.7173 971.1697 973.2935 974.8054 976.2272 977.6489 976.9038 975.1351 973.1181 971.1008 968.5979 965.5817 963.7383 961.6401 958.7119 954.0828 949.0197 943.22 937.3724 931.2901 927.2491 923.3736 919.521 915.0931 914.1749 918.2623 923.3477 928.5833 934.3469 939.5638 944.5403 949.2321 952.3475 954.4238 955.3109 955.2214 955.132 955.1816 956.0456 956.2755 956.2753 956.275 956.977 958.1428 960.1078 962.3614 964.1231 965.8849 967.578 966.0258 964.4735 962.9213 961.5721 959.9813 957.9418 955.8171 953.6554 950.6208 944.8633 943.6905 941.6295 940.5189 939.8709 938.9447 938.0363 936.7863 935.5143 934.0347 933.1652 933.0921 934.8991 937.0812 940.1684 942.4537 944.4844 946.3222 947.5084 948.6345 949.088 949.4081 949.8404 950.2415 950.4709 950.544 951.097 951.1194 951.3909 951.9188 952.4467 952.9746 955.1152 959.1307 961.0543 962.1552 963.2562 966.7022 970 970.4515 971.9117 973.7051 975.7105 977.7159 979.7214 980.5094 981.1299 981.7599 982.4344 983.2584 984.1492 985.2701 985.4099 985.356 985.3021 985.2482 984.7592 983.7106 984.7255 986.8711 989.675 992.1311 994.7427 996.9641 998.3554 999.5605 1000.905 1002.191 1003.478 1004.764 1006.467 1008.052 1009.636 1010.877 1011.706 1012.453 1012.362 1011.416 1010.47 1010 1009.236 1006.955 1005.028 1003.166 1001.305 999.2001 996.5258 993.8516 991.1886 988.2507 984.8655 981.3915 979.1761 975.8318 972.4875 970 968.9196 966.7629 964.6456 963.5741 961.3249 955.892 953.748 952.5959 950.2867 948.3438 947.1723 948.1685 947.2452 946.2179 946.2513 948.0179 946.4344 943.2352 942.6688 944.7808 947.3062 949.1357 948.2872 944.9005 940.5689 936.7782 932.9112 930.4472 927.5861 924.6306 921.4649 918.2333 916.6028 917.2119 919.447 920.5156 920.7305 920.9501 921.8304 922.4269 922.5764 922.6481 922.1367 920.2895 918.4617 916.9538 914.4301 911.9065 908.9756 904.7867 899.8432 896.9696 893.9188 890.4604 888.2265 887.0775 889.0791 891.3929 893.8977 896.3964 898.8656 901.1685 903.1771 904.9896 905.9957 905.2956 904.4424 903.5894 902.7362 902.0348 901.7255 901.6714 900.1183 900.3519 904.728 909.0417 911.4897 914.3629 917.2337 920.132 924.1969 928.4748 931.1816 933.7663 937.1856 940.4223 942.8868 945.3687 947.8506
978.175 978.8745 979.5739 980.5887 981.8966 982.8885 983.8434 984.6509 985.4583 987.1975 990.3961 992.5675 994.7432 996.9188 999.0944 1002.14 1005.807 1009.448 1011.66 1013.646 1015.633 1017.487 1019.296 1021.614 1023.815 1025.125 1026.436 1027.97 1029.266 1028.544 1027.57 1026.177 1024.76 1023.343 1021.926 1020.509 1017.959 1015.07 1012.182 1009.731 1008.784 1007.856 1007.003 1006.034 1005.028 1004.022 1003.078 1002.253 1001.483 1000.713 1000.013 998.829 997.4814 995.9435 993.9261 992.2476 989.7252 986.7582 984.6346 983.069 981.8115 979.8569 978.8799 977.7886 976.6888 975.5018 974.3045 972.9088 971.4373 970.0284 968.2039 966.3649 964.2876 962.0356 959.5026 955.0607 950.7258 947.0649 943.6221 940.1019 937.0374 934.2126 933.0324 934.0759 935.286 937.1918 939.1812 942.0059 945.2994 947.7014 950.2182 951.8533 953.4912 956.1357 958.5012 960.5836 963.439 966.2944 969.1498 971.4913 972.9962 974.4179 975.8396 977.1626 975.137 973.1182 971.101 968.7158 966.5641 964.2916 962.0191 959.4838 954.8046 949.9523 944.1658 938.4018 932.5929 927.8307 924.6665 920.22 914.5403 915.6193 920.007 924.6467 928.2255 932.8893 938.2498 942.9003 947.5099 950.7061 951.9495 952.5996 952.8843 952.7949 953.0828 953.4021 953.4019 953.4016 953.4826 954.5372 956.5838 959.1005 961.7672 963.6883 965.5702 966.6921 965.1399 963.5876 961.9908 960.3816 958.3024 956.0132 954.4399 952.4077 950.3096 944.9044 940.2059 937.5844 935.4123 935.206 934.3483 933.7025 932.6481 931.4094 932.2233 934.1815 935.853 937.1724 938.059 939.7399 941.7278 944.0355 946.3208 948.4808 949.7606 950 950 950.6884 952.0559 952.4273 952.5004 952.603 953.2231 952.4786 952.4432 952.9711 953.499 956.6152 960.387 962.4745 964.5621 965.7881 967.9412 970 971.0286 972.4888 973.9489 975.7865 977.7919 979.7974 981.2786 981.9354 982.5876 983.2042 983.9054 984.7962 984.3118 983.5657 983.5118 983.4579 983.404 982.5385 981.4899 982.4639 985.3969 988.468 990.9232 993.1444 995.0835 995.8564 997.2137 998.6946 1000.152 1001.439 1002.797 1004.435 1006.019 1007.491 1008.886 1010.155 1010.88 1010.955 1010.01 1010 1010 1008.763 1007.465 1005.755 1003.894 1002.032 1000.171 997.5708 994.9039 992.0512 988.7736 985.319 982.0345 978.9171 975.8741 972.8312 969.8589 967.7969 965.7348 963.6727 961.6107 960.6732 960.3475 960.7059 958.4503 954.6729 952.2056 953.9057 954.9812 952.0164 950.2977 951.634 953.7267 952.0999 949.3376 948.3378 949.8313 951.9324 951.9669 950.5997 948.5315 942.8644 938.0403 936.3635 933.4362 930.9603 927.2179 923.8739 920.7082 917.264 913.5513 914.9736 916.2386 916.6719 916.8293 918.1489 919.3951 920.0649 920.0918 919.2724 918.5917 916.5837 915.7717 914.1746 912.1567 909.3909 905.202 901.2149 897.8853 894.8004 890.9509 888.4671 886.6771 888.5278 890.2968 892.7449 895.4319 898.1989 900.6847 902.6462 904.6118 904.4473 903.5941 902.741 901.8879 901.0347 900.2888 899.8465 899.7446 900.0104 900.8179 905.693 911.0563 913.9528 916.8263 919.6972 923.241 927.1024 930.7548 933.007 935.0422 938.1182 941.0733 943.4603 945.8544 948.36
976.2917 976.7894 977.2057 978.5433 980.3823 981.1898 981.9972 982.8047 983.6121 986.4607 989.16 991.9262 994.5301 996.973 999.1486 1002.232 1005.869 1009.472 1011.725 1013.746 1015.767 1017.787 1019.828 1022.466 1025.109 1026.959 1028.269 1029.58 1030.491 1030.171 1029.095 1027.708 1026.291 1024.776 1023.094 1021.842 1020.87 1019.313 1016.408 1013.361 1010.315 1009.144 1008.138 1007.133 1006.127 1005.121 1004.227 1003.445 1002.675 1001.805 1001.193 1000.519 999.5879 997.8399 996.4059 994.749 992.3057 990.608 988.7548 987.4064 986.4412 984.0891 981.173 979.3054 978.1081 976.9108 975.668 974.1966 972.7611 971.5261 970.3096 968.6186 966.3622 964.0992 961.6927 958.5685 953.9037 949.4628 945.9754 942.4552 939.1899 936.6337 934.8365 932.7376 933.1404 935.1045 936.972 938.6414 940.7182 943.3811 946.1558 948.6888 950.79 953.0685 955.0164 957.3474 961.0551 963.8987 966.7422 969.5858 971.2787 972.7891 974.2067 975.2381 975.1288 972.9836 970.8384 968.6455 966.4219 964.1982 962.1233 960.1321 955.5257 950.1578 945.2278 940.2572 933.9838 929.9767 926.3107 921.051 915.1627 915.3641 920.5467 923.9316 927.3166 930.7979 935.6991 940.3566 943.9791 946.6875 948.1745 949.4322 950.1198 950.4193 950.5287 950.5285 950.5283 950.528 951.0287 953.0962 955.6084 958.8417 961.5712 964.0195 965.1907 964.748 963.4355 961.8443 960.2128 958.1219 956.0729 954.2199 952.4377 950.8645 947.2289 941.5153 936.3085 933.2788 930.3633 930.304 930.0847 930.2181 932.187 934 935.781 937.5758 939.3323 939.7318 939.9709 940.4609 941.5056 942.7086 945.0848 947.4611 950 950 950 951.8569 953.8223 954.2635 954.4567 954.5339 954.8846 954.5824 953.8379 953.4955 954.0234 957.9238 960.4297 962.7786 965.1275 967.4764 969.4209 970.1454 971.6056 973.0658 974.526 975.9862 977.8679 979.8734 981.576 982.741 983.3978 984.0325 984.649 984.556 983.6635 982.7711 981.8787 981.6137 981.3664 980.3178 978.8945 981.1453 984.3428 987.8588 990 991.546 992.8097 993.3859 994.8668 996.3477 997.8287 999.3096 1000.765 1002.167 1003.569 1004.97 1006.364 1007.73 1008.812 1009.671 1009.771 1009.195 1008.784 1008.173 1006.698 1005.222 1003.747 1002.416 1000.898 998.6191 995.4704 992.1777 988.7097 985.584 982.304 978.8329 974.9113 971.0004 970 969.2903 967.2282 965.1661 963.9442 966.2098 966.6072 966.9249 964.7541 960.7669 959.9254 960.9021 961.1514 959.5063 956.1822 958.0558 958.4187 957.0212 954.6695 953.2363 954.0029 955.9172 954.55 953.0645 950.2906 945.0884 941.5909 940.0306 938.7225 935.83 932.0102 928.2394 924.5231 920.3492 916.7684 913.1109 912.0426 913.4938 914.3313 912.5933 913.8269 914.776 915.7266 915.1141 915.7856 914.9104 914.0756 913.0102 911.3694 909.3464 906.1815 902.3187 898.7669 895.2958 891.4414 888.726 886.8303 887.8148 889.4697 891.8378 894.5415 897.1501 899.7553 901.384 902.8619 902.7454 901.8923 901.0391 900.186 898.0977 896.0999 894.8815 895.8344 899.1104 904.0897 910.3053 913.5555 916.6284 919.3165 922.7269 926.35 930.0041 932.2563 934.5084 936.7606 939.0507 941.7243 944.1113 946.4983 948.8698
973.8264 974.2888 974.4275 976.1403 977.9163 979.0051 980.151 980.9584 982.191 984.3994 987.5455 990.6239 993.2277 995.9003 998.8763 1002.237 1005.832 1009.43 1011.726 1013.829 1015.933 1018.036 1020.187 1023.02 1025.853 1028.605 1030.057 1030.779 1031.502 1031.29 1030.096 1028.399 1026.717 1025.465 1024.556 1023.648 1022.679 1021.516 1019.963 1016.813 1013.118 1010.579 1009.237 1008.232 1007.226 1006.223 1005.406 1004.636 1003.636 1002.984 1002.301 1001.432 1000.723 1000.191 999.1302 997.2528 995.1305 993.4789 992.0161 991.3677 990.6135 988.6088 985.9133 982.4855 979.517 978.3198 976.9559 975.5358 974.2402 973.0237 971.8071 970.4451 968.42 966.0718 963.9578 961.4609 957.6658 952.8943 948.6262 945.1854 941.7408 938.9134 936.6382 934.363 931.8678 932.9492 934.7457 936.415 937.9865 939.6302 942.0112 944.5961 947.1514 949.567 951.896 954.2319 958.0406 961.5284 964.372 967.053 969.6113 971.1344 972.4379 973.5062 973.9816 972.0659 970.21 968.4231 966.491 964.4999 962.5088 960.5176 956.137 950.1581 945.2943 941.3639 935.5765 930 925.2971 921.2391 916.0261 914.4829 920.0082 922.7527 925.4903 928.0859 931.2487 933.8521 938.7751 941.2182 942.6835 943.6569 944.3687 945.022 945.4103 945.741 945.8096 946.2311 949.4 952.1163 955.3495 958.5828 961.3752 962.8902 962.9559 962.2245 961.299 959.9105 957.8318 955.5627 953.5853 952.0456 950.4355 947.4003 943.2061 938.1909 933.1783 929.7593 928.8867 930 930.495 933.0992 935.7034 937.8855 939.6666 940.2907 940.6484 940.8085 940.9262 942.4373 943.6259 943.9017 944.1774 946.2266 949.4165 950 951.0602 953.0255 954.9908 956.0552 956.4131 956.4901 956.5684 956.6862 955.9417 955.1971 954.9401 957.4791 960 961.9776 964.1309 966.5753 969.1344 970.7225 972.1827 973.6428 975.103 976.5632 978.0234 979.9493 981.3772 982.5604 983.7436 984.8602 984.5364 983.9244 983.0556 982.1541 981.2524 980.3509 978.7077 977.1214 977.0456 979.9787 983.3671 986.5345 988.1948 989.7787 990.1593 991.039 992.7737 994.5555 996.3372 997.7786 998.6779 999.7337 1001.048 1002.45 1003.842 1005.048 1006.313 1007.084 1007.648 1007.134 1006.804 1006.474 1006.143 1005.516 1004.04 1002.564 1001.089 998.8961 994.6838 991.1825 987.2659 983.6067 980.8909 978.5471 975.2928 971.983 970 970 968.7216 967.2272 968.1987 970.6952 971.6424 971.7358 970.8337 968.2237 965.9987 966.7967 966.7528 965.8305 961.7462 962.9052 962.9382 960.3661 960 957.8151 958.4376 958.4563 956.848 954.5237 950.9349 949.0264 945.6684 944.1272 942.7557 938.6929 935.4821 932.2718 928.9584 924.6016 920.2231 916.5695 913.6639 910.826 911.7668 909.379 908.8884 909.5718 910.9284 911.6938 912.3516 912.9117 911.987 911.3857 910.2486 907.8942 905.238 902.6152 899.6406 895.7863 891.9319 889.0193 887.2875 887.2356 888.881 890.7319 893.2481 895.7643 897.9555 899.2393 900.4137 900.7168 900.1902 898.1097 895.6769 893.2442 891.8271 895.5582 899.217 903.6379 908.7192 912.4988 915.6221 919.1231 922.3055 925.5582 929.1813 931.2512 932.9433 935.4786 937.8041 940.0975 942.0907 944.0873 946.3801 948.6727
971.3611 971.5106 971.6492 973.8563 975.338 976.3358 977.4308 978.6545 980.3524 982.7031 986.0252 989.7538 992.7994 995.7967 998.8344 1002.147 1005.689 1009.232 1011.763 1014.014 1016.243 1018.347 1020.606 1023.439 1026.325 1029.262 1030.941 1031.79 1032.513 1032.311 1030.404 1029.088 1028.179 1027.271 1026.362 1025.453 1024.489 1023.139 1021.56 1019.428 1015.59 1013.195 1010.801 1009.331 1008.325 1007.372 1006.589 1005.573 1004.776 1004.083 1003.215 1002.346 1001.621 1001.115 1000.629 1000.023 997.9553 996.3548 995.1259 994.3309 992.8663 991.6215 990.3766 987.3878 983.2219 979.7151 978.3104 976.9544 975.7379 974.5211 973.261 971.7863 970.3611 968.4487 966.3365 963.7799 960.9199 956.7632 951.9352 947.9366 944.4182 940.7301 938.1908 935.8342 933.4084 931.1193 932.4996 934.0284 935.6378 937.3704 938.907 940.6178 943.1371 945.934 948.6119 951.1165 954.5092 958.7458 961.9533 964.6296 967.1356 969.1788 970.6566 971.7706 972.3934 971.1866 969.467 967.7822 966.0974 964.3386 962.4349 960.5311 955.7849 950.2517 946.3041 942.2981 936.9894 929.8463 925.6595 921.5099 916.8276 912.4465 916.7169 920.5335 923.0967 925.5545 927.5377 928.8193 930.193 933.5821 937.8311 938.3472 938.8634 939.9365 940.8239 941.7533 943.4025 946.695 950.225 952.5985 955.7897 958.9809 959.9761 960.737 960.7535 960.1192 959.1536 957.2371 955.5222 952.9548 950.9331 948.5527 946.0788 942.8253 938.0055 931.5181 928.7634 927.3761 928.9637 930.9246 933.5598 936.1639 938.7681 940.5839 940.7133 941.071 941.4286 941.749 941.8667 943.0604 946.2435 946.9595 947.2352 947.1639 948.5231 950.2634 952.2287 954.194 956.1593 957.8623 958.3522 958.4462 958.5246 958.6721 958.0455 958.0611 958.4445 958.898 960 960.7806 962.3839 964.6667 966.9497 970.012 971.6619 973.3118 974.9617 976.6116 978.2615 979.999 981.3586 982.6689 983.9791 984.7113 983.7322 983.1337 982.4687 981.5671 980.6656 980 977.8978 974.7925 976.0058 978.9849 982.2357 984.2414 985.9296 987.2925 987.6743 990.0485 991.8303 993.612 994.9104 995.8348 996.7792 997.8351 998.8909 999.9468 1001.284 1002.616 1003.979 1005.155 1005.525 1005.153 1004.823 1004.493 1004.163 1003.833 1003.502 1002.858 1001.382 999.7335 995.5212 990.8793 986.3098 981.8883 980 979.3563 976.1152 973.3832 972.5336 971.8083 970.5885 970.8455 971.9208 973.8322 975.3039 975.0383 974.5256 973.0515 971.2097 971.4006 971.3378 970.6736 966.6197 967.1051 966.8285 963.2099 960 961.3029 962.101 960.7133 958.7361 955.6057 952.8368 951.3248 949.8456 948.2357 944.321 940 937.7767 934.7462 931.6107 928.0162 923.9427 919.8925 916.9944 914.0963 911.4465 907.3003 905.351 905.3009 906.4872 907.6263 908.0091 908.3902 909.6137 908.885 906.186 905.2659 903.78 901.1353 897.6848 894.7341 891.3578 889.0542 887.5374 886.6719 888.1966 889.5919 891.7567 894.2729 896.0027 897.3119 898.1686 898.3018 897.3774 895.155 892.772 890.6523 894.9956 899.2161 902.7285 906.7943 911.5368 914.7373 917.798 921.1354 924.8158 928.4885 930.8917 932.5082 934.1248 935.8166 938.3519 940.7019 942.7078 944.7136 946.7195 948.7253
968.3798 968.5875 969.2199 971.5885 972.7597 973.7575 974.7554 975.8564 978.071 981.6649 985.4307 989.7919 992.6547 995.748 998.8341 1002.135 1005.568 1009 1011.614 1013.878 1016.15 1018.422 1021.097 1024.122 1027.06 1029.997 1031.501 1032.491 1033.454 1032.526 1030.101 1029.536 1029.053 1028.569 1028.085 1027.259 1026.297 1024.594 1022.747 1020.731 1018.206 1015.812 1013.417 1011.022 1009.424 1008.526 1007.509 1006.568 1005.866 1004.997 1004.128 1003.259 1002.525 1002.039 1001.495 1000.864 1000.232 999.2495 998.0484 996.5026 995.1303 993.8855 992.4288 990.8578 988.0948 983.6007 979.6827 978.4518 977.2351 976.0183 974.6021 973.3093 971.8921 970.5326 968.7152 966.0989 963.2389 960.3605 955.6902 950.8712 946.755 943.1628 939.7434 937.403 935.1607 932.9369 930.9846 931.6454 933.388 935.1434 936.6964 938.1327 939.7361 942.4002 945.0656 947.7245 950.6204 954.5408 959.3046 962.3649 964.6377 966.5868 968.2319 969.6066 969.8544 969.0491 968.1242 966.9312 965.3159 963.6572 961.9985 960.2541 955.581 950.7365 946.6982 942.8046 938.0719 930.8781 926.3167 922.0258 917.793 913.9139 914.5558 917.6624 920.3925 922.736 924.4606 924.7996 925.3222 928.622 933.5266 934.0428 937.5786 940 940.5139 943.2511 946.0439 949.1588 951.4462 953.3732 956.5644 959.6171 959.7649 959.6622 958.5991 958.0084 956.9324 955.493 953.045 950.9201 946.7532 943.2174 940.7092 937.3365 931.9366 928.5749 926.6149 928.0083 930.2034 933.2974 936.0231 938.6273 941.0143 941.9498 942.522 942.0316 942.2089 942.5665 942.8071 943.6835 948.0336 949.5768 950 949.8 950.1201 950.7357 953.4658 955.4029 957.34 959.2932 960.2365 960.6107 960.7297 960.8262 960.861 961.055 961.3096 961.7645 962.2042 963.342 963.7237 963.8578 964.1586 967.4517 970.3732 972.118 974.0286 975.9393 977.8499 979.7604 981.4409 983.0883 984.4214 984.2701 982.9631 982.3294 981.7066 980.9802 980.0787 979.8924 976.7145 973.2407 974.3541 977.8296 980.3069 981.9977 983.6884 984.7879 985.4946 988.4937 990.7917 992.0422 993.2927 993.8461 994.8807 995.9365 996.9924 998.2759 999.545 1000.282 1001.645 1003.977 1003.503 1003.173 1002.842 1002.512 1002.182 1001.852 1001.522 1001.192 1000.862 1000.2 995.8832 991.6542 987.9274 984.4505 981.929 980 978.1412 977.1085 976.2134 975.2195 974.6395 974.9097 975.6942 977.2299 978.8805 978.6802 978.2174 977.0574 975.2471 974.2377 974.2618 972.8735 971.0526 971.3901 970.5569 967.8465 964.1379 964.3575 964.9872 963.0861 960 959.0854 956.726 955.2654 953.7668 950.7645 944.709 941.5469 940 937.1642 934.0244 930.8846 927.0486 922.934 919.1685 916.8495 914.0198 910.3585 906.1137 902.4296 901.0912 901.3149 901.6552 901.447 901.4462 901.4171 901.6827 900.8782 900.2329 899.0073 895.3815 891.8895 889.8132 888.5687 887.0803 886.4042 887.4386 888.7906 890.2654 892.766 894.0849 895.3822 895.9649 895.8667 894.3915 892.4669 890.0475 893.2935 897.46 901.549 905.517 909.4572 913.2305 916.9566 920.2511 923.2913 926.454 930 931.3566 933.2991 935.2415 936.9983 938.6899 940.9694 942.9752 944.5926 946.1666 947.7405
965.6824 965.4906 967.7048 970 972.0028 973.1458 974.2888 975.4319 978.0333 981.3462 986.4253 990.7384 993.2316 995.7247 998.7717 1002.133 1005.62 1009.063 1011.649 1013.916 1016.182 1018.449 1021.129 1024.724 1027.795 1030.375 1031.877 1033.078 1033.312 1031.882 1029.706 1029.022 1028.337 1027.652 1026.968 1026.283 1025.737 1025.298 1023.75 1021.642 1019.299 1017.104 1014.91 1012.85 1010.881 1009.446 1008.43 1007.648 1006.779 1005.91 1005.041 1004.172 1003.449 1002.935 1002.336 1001.703 1001.158 1000.671 1000.084 998.6741 997.3312 995.8171 994.2861 992.7054 991.1022 988.8246 984.3075 979.949 978.7323 977.418 976.2017 974.8124 973.4231 972.0636 970.7097 968.6067 965.8862 962.6909 958.9814 954.0434 949.1515 945.5141 942.0222 939.308 937.0842 934.9202 933.0308 931.0907 931.1611 932.9165 934.4859 935.7145 937.3858 939.163 941.6205 944.4461 947.1766 949.8627 954.8314 960.0966 962.0251 963.9515 965.6538 966.8246 967.1404 966.7969 966.0049 965.3983 964.0754 962.7337 961.1199 958.7828 955.0355 951.2213 947.088 943.1942 938.7617 931.8687 926.7989 922.4655 918.4548 914.7416 912.8008 915.6893 917.9487 919.8572 920.9672 922.2141 926.0805 928.8274 931.5714 935.2207 939.0211 940.539 943.2614 946.1123 948.8596 950.8482 952.6674 954.5305 957.3391 959.4302 959.4208 958.0094 956.6325 956.048 954.8098 953.7302 951.817 948.6591 943.6572 938.7968 936.165 931.7931 928.7058 926.6443 925.8801 928.7495 932.0009 935.5845 938.4865 940.8983 942.9189 943.3159 943.7128 944.3871 943.8269 943.3468 943.7045 944.3066 948.5605 950 950 950.7274 951.0002 950.8502 952.907 956.2217 958.7094 960.8555 963.1809 963.5801 963.5284 963.2326 963.2217 963.3248 963.5187 964.2994 964.6165 965.6699 966.5326 966.6667 967.3917 968.9458 971.1696 972.3535 974.0833 975.8132 977.6113 979.522 981.2352 982.9534 984.8588 983.829 982.5219 981.4354 980.9266 980.2651 978.7735 976.8318 973.8596 971.4699 974.3876 977.1315 978.4694 979.8073 981.4473 982.2833 983.9066 986.66 988.7569 990.4245 991.3167 991.9263 992.9821 994.1039 995.7002 996.9001 998.1788 999.5215 1000 1001.854 1001.522 1001.192 1000.862 1000.532 1000.202 1000.11 1000.394 1000.677 1000.961 1001.164 998.4005 994.4953 990.7079 987.9312 985.4169 983.3152 982.1387 980.9554 979.8505 979.2704 978.6904 978.9953 979.5366 980.8177 981.9888 981.8914 981.5224 980.7565 979.2845 977.4743 977.1858 975.1956 974.4881 974.8141 973.2569 970 968.8638 967.5414 967.4443 963.9656 961.1415 961.0399 960.4252 959.139 955.5417 952.1547 949.3676 946.318 944.2493 940.9616 937.7544 933.7592 928.7906 924.7712 921.9287 919.9569 916.5932 912.9736 909.207 905.2269 902.235 900.138 900 897.1848 896.6853 896.0796 896.3403 896.0842 895.7047 895.6319 893.4402 889.8123 889.0593 888.0513 887.2509 886.7296 886.5531 887.9787 889.3412 890.8578 892.2919 893.2068 893.61 893.4316 891.8367 890 890 894.6149 899.3333 902.9544 906.4327 909.9109 914.1224 918.2035 921.6982 924.9155 927.7941 930 931.3691 933.3115 935.254 937.1964 938.7875 940.359 941.933 943.5069 945.0809 946.715
964.0036 966.0901 968.3454 970 971.8795 974.513 976.848 977.991 980.375 984.0663 988.1376 991.579 994.0721 996.5652 999.0432 1001.94 1005.434 1008.927 1011.607 1013.923 1016.178 1018.433 1021.106 1024.728 1028.35 1030.75 1032.253 1033.434 1032.056 1030.678 1028.676 1026.803 1026.087 1025.403 1024.718 1024.034 1023.624 1023.007 1021.886 1021.151 1019.646 1018.527 1016.558 1014.59 1012.621 1010.694 1009.43 1008.561 1007.692 1006.823 1005.954 1005.086 1004.366 1003.802 1003.175 1002.557 1002.068 1001.501 1000.912 1000.299 999.2054 997.6914 996.1337 994.5001 992.9178 991.4291 989.4623 985.0978 980.7337 979.0941 977.7885 976.3136 974.9541 973.6544 972.2346 970.7255 968.4335 965.0214 961.6092 957.2084 951.9348 947.6971 944.5616 941.6258 939.0077 936.9568 934.7689 932.9893 931.2595 930.6896 932.2408 933.2623 935.0059 936.5531 938.679 941.3639 943.7569 946.5699 950.0086 955.2174 958.978 961.3163 963.0757 963.9226 964.4265 964.4756 963.7526 963.3214 962.5615 961.2198 959.7946 957.5344 954.35 950.916 947.2227 943.4352 939.4281 932.4357 927.2513 923.0288 918.9503 915.6674 912.3547 914.1883 916.4235 918.6721 921.1462 925.0236 928.9543 932.0435 934.6712 937.7591 940.7502 943.3167 946.0391 948.9802 950.9933 952.4207 953.9943 955.7517 958.1138 959.1795 957.7681 956.3566 954.9451 953.9221 952.958 951.6113 950.113 946.0491 940.9725 936.2879 931.7407 928.8821 926.7787 924.66 926.442 929.2061 933.2634 937.335 940.7224 942.9273 944.2849 944.6818 945.0787 945.5536 946.1824 945.6222 945.062 944.9297 947.9931 950 950.5718 952.0177 953.4636 951.6808 951.7638 955.0784 958.392 961.5014 964.5804 966.2307 965.9348 965.639 965.5825 965.5947 965.7793 966.2563 967.1513 968.0328 969.1356 969.8729 970.4569 971.3237 972.3793 973.9628 974.6615 976.3913 978.1212 979.851 982.0908 983.7443 984.1249 982.233 981.5331 980.7737 980.0475 978.3434 976.1761 973.7712 971.0046 970.9456 974.0202 975.3581 976.696 978.0054 979.4467 980 981.9136 984.4075 986.3223 988.026 988.92 990.0909 991.2583 993.1245 994.4061 995.47 996.8126 998.1553 999.4979 1000.11 1000.394 1000.677 1000.961 1001.244 1001.528 1001.811 1002.095 1002.378 1002.661 1002.248 1000.455 997.2155 994.1583 991.5105 988.92 987.6483 986.408 985.2239 984.3902 983.6514 983.0138 983.3735 983.619 983.748 984.9191 984.8351 984.389 983.5461 982.2953 981.0446 979.6038 977.7653 977.9236 977.8134 974.5687 971.2946 971.2924 970.2313 969.1691 966.3976 964.1689 963.9104 962.9597 960.681 957.5595 954.9977 952.3289 950.7819 949.3307 945.8431 941.225 936.023 930.7007 926.9893 924.6328 923.2112 920.006 916.4315 912.2673 908.0242 904.9841 902.485 900.1138 898.4525 897.2404 895.1701 893.03 891.5129 890.9349 890.9653 890.9956 889.5559 889.3191 889.0582 888.7771 888.2856 887.2138 886.2095 887.4133 888.9598 890.3548 891.0314 891.1624 890.9966 889.7381 889.4949 891.3051 895.7168 900.2411 903.546 906.8864 910.4434 914.6742 918.6974 921.6963 924.226 926.8784 929.6253 931.3815 933.017 934.3565 936.0785 938.6569 940 940.8473 942.4213 944.002 945.2968
964.8035 967.0387 969.1735 970 971.2647 973.8982 976.5317 979.9869 982.8104 986.232 989.6537 992.2361 994.6454 997.1553 999.6653 1002.508 1005.376 1008.461 1011.297 1013.616 1015.956 1018.337 1021.104 1024.753 1028.388 1030.808 1032.261 1032.755 1031.377 1029.989 1027.501 1025.167 1023.906 1023.153 1022.468 1021.79 1021.484 1020.71 1019.967 1018.997 1018.399 1018.148 1017.557 1016.329 1014.365 1012.102 1009.847 1009.01 1008.174 1007.023 1005.874 1004.724 1004.765 1004.647 1004.002 1003.464 1002.918 1002.33 1001.71 1001.08 1000.449 999.562 997.9171 996.2688 994.7335 993.1277 991.4699 989.5053 985.7339 981.8511 979.2767 977.8446 976.5992 975.2419 973.7329 972.2883 970.7515 968.256 964.9112 961.0537 955.7944 950.0107 947.0644 944.1233 941.1823 938.6838 936.6176 934.8879 933.1581 931.2548 930 930.825 932.1462 933.978 936.2115 938.2012 940.1569 943.5855 946.9147 950.2253 954.5642 957.791 960.3865 961.0206 961.6546 961.7637 961.5003 961.2446 960.5955 959.5046 957.2444 954.9844 952.7718 950.5714 947.3314 943.6691 940.0068 932.9394 927.5289 923.2776 919.2735 916.3979 913.1675 913.5959 915.8821 918.559 922.5992 928.2294 931.9019 934.9018 937.8826 940.7276 943.4192 946.0944 948.8167 950.8715 952.3901 954.0066 955.4923 957.1404 958.8843 957.5267 956.1152 954.7037 953.2923 952.0579 951.1061 949.4701 946.3643 942.3365 938.036 933.089 929.2455 927.2194 925.005 924.2042 926.828 929.4518 933.7737 938.3828 941.8239 944.6338 945.6509 946.0478 946.4447 946.8416 947.5203 947.9777 947.4175 948.311 949.6111 950.4524 951.8621 953.308 954.7539 954.3309 952.3615 953.9351 957.1364 960.2695 962.8792 966.6678 968.0542 968.0453 967.9134 967.883 968.0398 968.1904 969.3005 970.2637 970.9984 971.9355 972.4681 973.2087 974.2092 975.6391 976.4078 977.0739 978.6993 980.6472 983.2559 984.74 982.7542 980.6289 979.9112 979.0349 977.8542 975.4124 973.6718 971.2312 970.0159 970.9089 972.2242 973.5088 974.7934 976.078 977.6904 979.4437 980 982.0057 983.5926 984.8548 986.4534 988.7858 990.5487 991.9119 992.9572 994.1038 995.4464 996.7891 999.063 1000.729 1001.928 1002.378 1002.661 1002.945 1003.228 1003.512 1003.795 1004.079 1004.362 1003.331 1001.629 1000.236 997.8474 995.3477 993.2753 992.2314 990.8149 989.7122 988.961 988.2098 987.4673 987.6479 988.0674 987.623 987.8494 987.7348 987.2024 986.3358 985.085 983.9891 982.1611 980.5504 980 979.2556 976.0415 974.3442 974.0214 972.6478 971.0477 969.425 967.1963 966.4449 964.3954 961.5167 960 957.4758 954.8631 953.6973 951.4044 947.7422 942.9636 937.9776 933.7068 929.3031 928.2926 926.3112 923.106 919.8894 915.4318 910.9293 907.981 905.5084 903.0359 902.16 901.1681 899.7006 897.2885 895.9731 894.251 893.6688 893.1362 892.5937 891.8787 891.5699 890.4886 889.8303 888.9833 888.097 886.603 886.9548 888.3007 888.975 889.0321 889.1012 888.3102 889.1879 891.9479 896.3621 900.2059 903.5807 906.9557 910.101 914.184 918.267 921.1984 923.5207 925.8431 927.4688 930.0697 931.4092 933.3694 935.2495 936.3962 939.3758 940 941.3356 942.6921 943.1467
965.5961 967.5835 969.5709 970 970.65 974.3679 978.825 981.4084 983.4777 986.8993 990.2408 992.8076 995.3599 997.5913 999.9161 1002.807 1005.619 1008.432 1011.079 1013.518 1015.956 1018.336 1021.103 1024.767 1028.43 1030.826 1032.272 1032.069 1030.686 1028.745 1026.258 1023.961 1021.861 1021.009 1020.219 1019.064 1018.719 1018.414 1017.444 1016.473 1016.019 1015.431 1015.18 1014.929 1014.384 1011.743 1009.159 1007.582 1006.432 1005.282 1004.132 1003.357 1003.889 1004.527 1004.861 1004.314 1003.747 1003.12 1002.494 1002.1 1001.706 1001.06 999.6858 998.0378 996.4595 994.798 993.046 991.3448 989.2017 985.4544 981.9022 979.544 978.2494 976.7999 975.3636 973.8951 972.3215 970.748 967.9902 964.0967 960.2444 954.6486 949.425 946.4839 943.5269 940.5575 938.3844 936.1564 933.9285 931.7518 930 930 929.8331 931.1874 933.2012 935.1656 937.6829 940.5992 943.824 946.9786 950.3974 954.239 957.3492 958.0173 958.69 959.103 959.1306 959.0913 958.3826 957.8624 956.7309 954.6852 952.4849 950.2845 946.9589 943.4661 939.9899 933.454 927.6635 923.2779 919.2737 916.3981 913.5205 913.562 916.2722 918.9824 923.5706 929.276 934.096 937.1455 940.1519 942.5633 945.6674 948.5616 950.7905 952.2486 953.7068 955.4966 957.0614 957.6022 956.9144 955.7906 954.4033 953.016 951.6287 950.2388 948.0146 945.3898 942.4226 938.1692 933.4095 929.4651 927.5154 925.5957 923.5702 924.3471 926.5677 929.1898 933.3884 938.2905 941.3677 943.1122 944.5272 946.059 947.5908 948.2076 948.6046 949.4869 950.5764 951.4044 951.7441 952.3455 953.334 954.5983 956.0443 956.981 955.0116 953.6788 955.3521 958.2724 960.9792 965.0836 968.7042 969.4985 970.2799 970.2416 970.3902 970.5858 970.9345 971.8213 972.5727 973.4266 974.4793 975.0361 976.0798 977.0947 978.1868 978.853 979.519 981.5196 984.1304 983.2708 981.0104 978.8309 977.9028 977.0265 975.9549 974.3353 971.9454 969.2833 968.6274 970 970.2968 971.5814 972.866 974.1808 975.9341 977.4206 978.312 980 980.6378 982.4802 984.7996 987.1053 989.4111 990.4631 991.5084 992.7376 994.4421 996.7569 998.7709 1000.706 1001.957 1003.182 1004.174 1004.645 1004.929 1005.212 1005.496 1005.779 1006.063 1004.479 1003.298 1002.014 1000.85 999.7795 998.2162 996.8355 995.4548 994.2129 993.4586 992.723 991.9873 991.4421 991.3317 991.0964 990.8611 990.4509 989.9968 989.1869 988.2271 986.6 984.9199 983.4922 982.1223 980.701 979.0092 977.7567 976.4429 975.0642 972.5663 970 970 967.7086 964.9718 962.2922 960 959.9538 957.7785 955.2519 952.4905 948.8959 943.4227 938.3259 936.0711 934.3115 932.0275 930.0179 926.8975 921.6262 916.8809 914.3004 911.1722 908.3524 905.8799 905.5865 904.5945 902.8223 901.6314 900.4037 898.2164 897.3906 896.9507 896.5109 895.813 896.4475 896.3618 895.5099 893.4682 890.6979 888.587 886.8836 886.2202 887.0586 887.2292 887.4268 887.5795 888.939 891.5192 895.1577 899.032 902.5316 905.7434 908.5411 911.6758 915.1474 918.619 920.8483 922.2195 923.1304 923.7691 928.0652 930.3964 931.4503 932.4391 935.5566 938.1667 940.0874 940.5486 940.8942
965.9935 967.9808 969.9682 970 972.3823 977.2382 980.9097 982.8223 984.735 987.5666 990.7414 993.3082 995.8749 998.4417 1000.823 1003.389 1005.956 1008.419 1010.861 1013.337 1015.801 1018.265 1021.082 1024.739 1028.395 1030.544 1032.131 1031.216 1029.989 1027.502 1025.014 1022.527 1020.428 1017.89 1016.091 1014.434 1014.535 1014.872 1014.92 1013.95 1013.43 1013.282 1012.464 1012.213 1011.557 1009.7 1008.118 1006.034 1004.69 1003.54 1002.39 1002.442 1003.055 1003.704 1004.271 1004.858 1004.861 1004.467 1004.073 1003.679 1003.285 1002.465 1001.156 999.7358 997.9838 996.2319 994.5353 992.8474 991.2202 989.4188 986.1597 982.6222 979.8752 978.4389 977.0027 975.4651 973.8718 972.099 970.3262 966.8747 963.108 959.0224 953.4332 948.84 945.724 942.62 939.7033 937.5285 935.3536 933.2448 931.2407 929.7464 928.3461 928.7318 930.1909 932.602 935.0369 937.303 939.4864 942.8488 946.9885 951.1285 954.2912 954.9593 956.0367 956.5374 956.5264 956.7227 956.1151 955.7585 955.1553 953.7692 952.198 949.9963 946.5055 943.0477 939.3181 933.5682 928.0547 923.3814 919.2739 916.3332 913.3804 913.7145 916.7726 919.4985 924.6593 930.2536 935.0303 939.2682 941.8056 944.1812 946.7646 950.0569 951.4409 953.1773 955.0839 955.8801 955.7297 955.5076 954.8525 953.8492 952.6359 951.2487 949.3077 944.4128 942.7712 940.2371 936.985 933.1664 929.4412 927.3406 925.2402 923.2939 923.1451 925.3591 927.0924 928.997 932.5325 935.722 940.1282 941.3961 942.7864 944.3182 945.85 947.3818 948.938 951.5724 953.7131 953.8215 953.9299 954.2695 954.9695 956.2156 957.4617 958.7805 958.0471 958.2479 957.4548 958.3887 960 963.3455 967.6935 970.3643 972.3133 973.149 973.2545 972.678 972.4687 973.2993 974.147 974.9045 976.0629 977.0232 977.9073 978.9509 979.9658 980.6638 981.3636 982.4141 984.998 982.4111 979.7404 976.8315 975.6434 975.0181 974.0556 972.436 970.8164 968.4166 966.7025 969.1838 970 970 970.9386 972.4245 974.1161 975.2958 977.4075 979.5192 980 981.4095 983.6674 985.9251 988.1829 990 990.0596 991.788 993.5599 995.6992 998.3507 1000.497 1001.814 1003.13 1004.41 1005.635 1006.419 1006.913 1007.196 1007.48 1007.351 1006.034 1005.093 1003.608 1002.589 1001.506 1001.011 1000.516 1000.021 998.795 997.9347 996.973 995.542 994.8297 993.7769 993.451 993.1542 992.5563 991.9736 991.3392 990.6301 989.4011 987.7789 986.434 984.9675 983.3398 981.7578 980.206 978.8644 976.6795 974.4786 972.5436 971.1511 970 967.5439 964.9588 962.3693 961.6157 959.7152 957.1577 952.9516 948.3833 944.4376 942.0652 940.6932 937.1778 934.4169 932.1228 928.4412 923.1828 919.9561 918.3574 915.2135 911.7001 908.7239 908.632 907.7877 906.7751 905.8328 904.3015 902.5333 901.8551 901.1781 900.5011 900.5222 901.2665 901.7418 901.355 900.1703 896.5676 891.6665 888.8661 887.0464 886.2119 885.9779 886.4182 887.1245 888.8297 891.3371 894.626 897.915 901.4176 904.0059 906.506 907.9426 909.394 912.0203 913.9512 916.6835 918.077 918.3962 919.5176 921.2565 923.6011 926.5649 929.623 931.9794 933.6779 935.1509 936.2916
966.3908 968.3782 970 970.8826 974.3082 978.8256 981.718 983.9931 986.1489 988.2339 991.2419 993.8087 996.3765 998.9484 1001.338 1003.603 1005.867 1008.276 1010.714 1013.205 1015.695 1018.265 1021.122 1024.703 1028.359 1030.535 1031.526 1030.485 1028.856 1026.54 1023.96 1021.38 1018.171 1014.468 1011.924 1009.845 1010.294 1010.734 1011.206 1011.426 1010.91 1010.811 1010.336 1009.531 1008.971 1007.901 1006.203 1004.783 1002.949 1001.799 1001.226 1001.583 1002.233 1002.838 1003.495 1004.713 1006.136 1006.046 1005.652 1005.257 1004.863 1003.871 1002.593 1001.243 999.4177 997.7631 996.1279 994.4927 992.9663 991.3085 989.0736 985.5361 982.8349 980.1461 978.6087 976.8859 975.1837 973.5062 971.8286 970.1127 966.0767 962.2047 957.6821 951.5959 947.6446 944.6107 941.5768 938.9554 936.8525 934.7318 932.5006 930.9 928.7156 926.2604 927.4239 929.6039 931.9925 934.0591 936.4337 939.187 941.7304 945.3263 951.0595 952.2012 953.3562 953.9718 953.9222 954.3198 953.8475 953.5655 953.0587 952.2054 950.8074 949.2715 946.1015 942.6437 938.6463 933.1422 928.1068 923.5901 919.4857 916.4312 913.3766 913.6997 916.8145 919.941 925.3885 930.8391 936.3514 940.6196 943.1331 945.6467 948.1603 950.5046 952.156 953.5695 954.2024 953.8386 953.6418 953.3916 952.7905 951.8577 950.7264 947.4105 940.4852 937.7603 934.6924 932.3021 929.9694 928.4199 926.7839 925.2177 923.1169 922.2176 924.4901 926.7974 929.0182 931.2853 933.1785 932.4927 937.3464 940 941.2344 943.2693 945.3042 947.3391 949.374 952.4555 955.2004 956.0552 956.347 956.4553 956.7948 957.8511 959.0972 960 960 960.983 961.1585 960.531 960.7845 962.2426 966.0422 970.3461 972.8843 975.485 975.3008 974.7244 974.1479 974.8364 975.6639 976.456 977.5407 978.6991 979.7347 980.5421 981.2688 982.3616 983.2324 984.2843 984.1517 981.5458 978.5582 975.014 973.1437 972.8312 972.1334 970.5367 969.9903 967.502 964.931 966.9836 968.5361 970 970 970.5955 972.2939 974.4055 976.5172 978.6288 980 980.6554 982.9132 985.171 986.7831 988.8321 990 990.2125 992.5805 995.1064 997.6322 1000.086 1001.467 1002.848 1004.228 1005.554 1006.863 1007.956 1008.665 1009.181 1008.77 1008.16 1006.691 1005.264 1004.25 1003.156 1002.661 1002.166 1001.591 1001.133 1000.597 1000.177 998.7034 997.5485 996.3149 995.8056 995.4154 994.3873 993.7585 993.1345 992.2625 991.2833 990.4189 989.2375 987.5604 985.8887 984.045 982.6404 980.9769 979.0706 976.8754 975.2551 973.8655 972.2046 969.8336 967.2441 965.3512 964.7214 961.5557 956.998 952.8401 950 946.9782 945.277 944.2178 938.8157 936.0107 933.1293 930.4023 926.4843 925.5177 922.7119 919.1443 915.0362 912.1086 912.1782 911.7845 910.883 909.9807 909.0915 908.3204 907.7258 907.1491 907.1497 906.1086 905.9282 906.1258 903.9803 902.4263 899.947 895.0759 890.572 888.4427 887.3353 885.8764 886.0153 887.3113 888.9539 891.1322 894.3881 897.644 899.5575 901.8062 903.8279 905.168 906.6194 907.835 908.5835 909.1627 910.2146 911.6913 913.8464 916.5548 917.7896 919.5064 922.6707 927.1061 928.162 928.7717 929.8923
967.3489 968.7755 970.4175 973.843 977.146 980.0535 982.3484 984.6434 986.9382 989.2332 991.5687 994.0297 996.4908 999.0578 1001.552 1003.821 1006.072 1008.324 1010.666 1013.272 1015.879 1018.469 1021.394 1024.899 1028.403 1030.301 1030.646 1029.807 1027.692 1025.475 1023.288 1021.1 1016.881 1012.21 1008.688 1005.795 1004.199 1004.699 1005.434 1006.807 1006.979 1008.261 1008.157 1007.366 1006.785 1006.003 1004.405 1002.834 1001.439 1000.161 1000.16 1000.763 1001.405 1002.127 1003.014 1004.572 1006.129 1007.246 1007.23 1006.836 1006.442 1005.276 1004.518 1002.766 1001.08 999.4085 997.7733 996.1813 994.5353 992.7688 990.996 988.5923 985.8631 983.053 980.2656 978.4834 976.8058 975.1282 973.4443 971.7227 970.001 965.8043 961.5797 955.5186 949.8953 946.8337 943.7651 940.3725 938.0023 935.7711 934.0079 932.2114 930.3929 928.2839 925.9743 926.6901 928.7791 930.7521 933.4073 935.8926 937.6291 939.3174 944.6118 948.6774 950.6757 951.3839 951.3425 951.8649 951.5799 951.3725 950.9621 950.3516 949.067 947.3425 945.1403 941.8596 938.08 932.8272 928.028 923.6521 919.4862 916.3797 913.2421 913.9268 917.0166 920.1727 925.6721 930.9564 936.5249 940.7204 943.1472 945.574 947.6541 949.6813 951.9574 952.7296 952.5569 951.8429 951.5956 951.2756 950.6789 949.5912 946.1335 941.525 934.9424 930.8875 928.5964 927.3905 926.5091 925.3618 923.697 922.6276 921.2339 923.439 925.644 927.8743 930.3343 934.2018 937.5434 937.6573 939.3566 940.6219 942.8638 942.7045 943.8538 946.1685 948.944 952.3083 954.9019 956.7078 957.5103 958.2767 958.9808 959.4866 960 960.2095 961.4726 962.7357 963.9987 963.3716 963.8709 965.3289 968.5643 970 972.3738 975.0426 976.8304 976.7708 976.1943 976.4158 977.204 978.0286 979.0186 980.1052 980.7934 981.7234 982.5414 983.2681 984.651 983.8384 982.5721 980.6766 977.376 973.8318 970.6441 970.3315 970.0189 969.7961 968.2123 964.9816 963.814 964.0692 965.2625 966.9885 967.947 969.5361 971.8488 973.9556 976.0218 977.9099 979.4011 980 982.1591 983.6313 985.511 987.5601 989.609 990.1613 992.3759 994.5906 996.8054 999.3192 1001.008 1002.389 1003.77 1005.15 1006.531 1007.911 1009.292 1010.276 1010.637 1009.773 1008.285 1007.003 1005.545 1004.806 1004.311 1003.647 1002.978 1002.375 1001.724 1001.246 1000.579 1000.056 998.853 998.1388 997.1041 996.2939 995.5259 994.874 993.8948 992.9302 992.1241 991.1639 989.9785 988.1348 986.4224 984.6623 982.8265 981.1324 979.3591 977.9852 976.6133 973.577 970 969.5294 968.4665 967.1185 961.7971 957.7454 953.9699 952.2076 949.8644 949.1104 946.9626 942.7277 940.4135 937.8677 933.9626 931.7589 930.3515 926.7916 921.2853 917.5939 915.9517 916.1465 915.7528 914.8219 913.6022 912.7731 912.3655 911.6273 911.2927 911.0142 910.179 910 908.5303 906.4562 904.0034 901.4066 897.7897 893.6578 889.8214 888.3421 886.8586 885.7775 887.2337 888.7608 890.7953 894.0512 896.5603 898.1547 899.749 901.0333 902.3343 903.1288 904.6612 904.8883 904.9373 906.1112 908.2355 911.6653 912.7442 913.7969 915.9155 919.2524 922.9815 923.0473 923.0778 924.4847
968.8773 969.6551 971.5903 974.4474 977.3045 980.1542 982.3054 984.3994 986.4963 988.6218 990.8652 993.3263 995.9581 998.9383 1001.461 1003.73 1005.999 1008.269 1010.626 1013.147 1015.662 1018.185 1021.01 1024.687 1027.211 1028.62 1029.592 1027.956 1026.474 1024.993 1022.922 1020.686 1016.215 1010.6 1007.158 1004.065 1000.972 1000 1000.102 1002.159 1003.836 1005.735 1005.831 1005.173 1004.618 1003.95 1002.627 1000.908 999.2803 997.3121 997.5264 999.8091 1000.76 1001.611 1002.872 1004.43 1005.987 1007.545 1008.355 1008.415 1007.991 1007.004 1006.151 1004.44 1002.783 1001.091 999.4186 997.744 996.0019 994.2291 992.5801 990.823 988.5334 985.7233 982.9421 980.174 978.4279 976.7503 975.0543 973.3326 971.611 969.6929 964.6323 959.488 953.791 948.8883 945.5656 942.0298 939.0415 937.0931 935.3267 933.7176 932.1105 930.4028 928.2358 925.2202 925.4939 927.5463 930.4218 932.5774 934.3605 936.4966 938.7684 941.4624 945.2172 947.6582 947.7955 948.8738 948.4951 949.0552 948.9141 948.3298 947.4841 945.4517 943.6888 940.8755 936.8422 932.0558 927.4257 923.1545 919.1329 916.0264 913.0353 914.0443 917.1723 920.4506 925.721 930.9561 935.9506 940.4219 942.6282 944.6555 946.6827 948.7099 950.6586 951.0143 951.3187 950.3345 949.0756 948.2076 946.8151 944.7239 941.4921 935.8968 929.6733 927.2589 925.4489 924.2864 923.1564 922.1568 920.6139 921.9633 923.072 923.7866 926.1105 928.4343 932.4465 936.767 940.3932 941.9766 942.6775 943.8115 944.7889 946.313 945.8801 945.454 948.6977 952.043 954.6034 957.1638 958.1472 958.9496 959.7358 960 960.493 962.044 963.2364 964.4883 965.7514 966.2122 966.8553 968.4152 970 970 971.9313 974.6002 977.269 978.0258 978.2407 977.9954 978.7835 979.5717 980.295 980.9832 981.6714 982.4718 983.429 984.3964 984.43 982.9316 981.4332 979.8717 976.9211 973.7599 970.4716 967.5732 966.8629 966.6704 964.0104 963.6354 963.2605 963.4946 963.9358 964.377 965.4927 969.0921 971.5209 973.4336 974.9248 976.4161 977.9073 979.3985 980.6796 982.19 984.239 986.288 988.337 990.4001 992.4671 994.5341 996.5897 998.2426 1000.662 1002.244 1003.826 1005.247 1006.652 1008.057 1009.462 1011.029 1011.963 1010.94 1009.88 1008.423 1006.951 1006.456 1005.704 1004.823 1004.297 1003.283 1002.851 1002.227 1001.988 1001.702 1000.902 999.9631 998.7927 998.0613 997.2932 996.5063 995.5508 994.5992 993.8663 992.7996 991.5309 990.2621 988.4324 986.3703 984.6761 982.976 981.6101 980.5607 979.361 975.5405 972.9852 972.2664 971.5189 968.5614 964.1281 959.718 958.0078 956.5632 954.8408 953.8536 951.1912 947.5626 944.9381 941.0324 937.882 934.9761 932.5317 930.5379 925.7903 920.9392 919.7948 919.9973 919.5835 918.3934 917.0866 916.0626 915.4647 913.8203 913.4857 912.8994 912.0641 911.2288 910.2097 907.1949 904.179 901.1545 897.5479 893.9416 890.3353 888.6544 887.1537 885.6113 886.9514 888.5911 890.4584 893.5632 895.1575 895.9683 896.0598 897.3381 898.5656 900 901.3368 901.1753 903.2721 905.7888 909.0029 912.726 914.2128 915.2979 916.6575 919.1257 922.4849 924.0216 925.4359 927.1751
968.2755 969.1768 971.7003 974.3496 976.914 979.4666 981.6564 983.7632 985.8887 988.0142 990.1618 992.8585 995.8386 998.8188 1001.37 1003.648 1005.95 1008.252 1010.611 1013.152 1015.693 1018.213 1021.063 1023.588 1025.627 1027.883 1029.561 1027.728 1025.896 1024.044 1022.19 1020.335 1014.94 1009.404 1006.203 1003.002 1000 997.2272 994.4299 997.4794 1000.693 1002.73 1003.306 1002.98 1002.518 1001.853 1000.664 998.5068 996.5082 994.5613 994.6723 997.585 1000.271 1001.173 1002.73 1004.288 1005.846 1007.403 1008.877 1009.465 1009.49 1008.929 1007.749 1006.178 1004.487 1002.788 1000.973 999.235 997.5745 995.9892 994.1803 992.4589 990.7374 988.3936 985.6186 982.8505 980.0824 978.3724 976.6642 974.9426 973.1295 971.3928 968.6772 963.3394 957.0965 951.1812 947.2457 943.7247 940.4221 938.6514 937.0423 935.4559 933.8148 932.1072 930.4494 928.0737 925.1412 924.4038 927.0433 929.2195 931.3995 933.6666 935.6799 937.5452 939.4774 941.7211 942.9849 944.0715 945.67 946.5298 946.8863 946.3231 945.7572 944.2263 942.196 939.8575 935.5502 931.2428 926.8044 922.5747 918.8482 915.9597 913.0712 913.9977 917.157 920.4557 925.1604 930.261 935.5458 940 940.9876 943.0227 945.0577 947.0928 947.5712 948.3065 949.0419 947.3587 944.8782 943.7348 942.1854 939.9483 935.4591 929.6857 926.5139 923.9495 922.3214 921.1914 920.1582 921.2774 923.2299 924.9863 925.9005 926.3147 926.6206 928.149 930.7793 939.1365 942.36 944.5236 945.6203 946.9343 948.2944 949.0712 949.5157 949.4177 950.0262 951.7445 954.3049 956.8652 958.7841 959.5865 960 960.582 962.1829 963.7839 965.1501 966.3425 967.5349 968.7672 969.5262 970.1944 970.3913 970.6014 972.2912 974.1787 976.8266 978.6526 979.2211 979.7106 980.2526 980.8008 981.3491 981.8973 982.5495 983.2445 984.1718 984.8731 983.9604 982.5698 981.0715 979.1594 976.2088 973.2582 970.8484 968.7804 965.9777 963.8318 963.4568 963.0819 962.707 962.9199 963.3611 963.8023 965.7596 968.8508 971.0974 972.8008 974.5041 976.1424 977.4793 978.8162 980 981.5804 983.7979 985.6566 987.4756 989.5679 991.5486 993.33 994.9264 997.3104 1000.188 1001.77 1003.352 1004.933 1006.515 1008.097 1009.679 1011.203 1012.691 1012.192 1010.888 1009.719 1008.601 1007.76 1006.856 1006.219 1005.204 1004.398 1003.876 1003.517 1003.446 1003.348 1002.548 1001.581 1000.588 999.8286 999.0606 998.1598 997.1951 996.3073 995.5342 994.3453 993.0766 991.8923 990.1111 988.2199 986.513 984.8057 983.712 982.6485 981.1093 978.8356 976.7696 975.2577 973.6838 970.5493 966.3477 963.8365 963.1023 961.5084 959.9443 957.2673 954.4197 951.5027 947.3569 943.2578 939.7363 936.9139 935.4232 934.0775 929.549 924.926 923.0526 923.2225 922.7265 921.6968 920.4683 919.3022 917.6577 916.0133 915.6199 914.7846 913.9493 912.3417 910.4482 907.392 903.9751 900.7904 897.6512 894.4655 891.0947 888.9471 887.3628 885.7503 886.7953 888.4214 890.1215 891.7446 891.8361 892.1832 893.3029 895.011 896.5546 900 902.7347 905.7337 907.8599 910.042 912.137 915.6195 918.0453 919.778 921.6733 923.6948 927.037 929.1765 930.3239 931.127
966.3597 968.7009 970.869 973.4321 975.9952 978.5583 980.924 983.0007 985.0774 987.1541 989.2172 991.8812 994.9188 998.7463 1001.52 1003.646 1005.936 1008.238 1010.596 1013.137 1015.679 1018.219 1020.723 1023.155 1025.339 1027.496 1029.529 1027.697 1025.865 1024.032 1022.2 1020.351 1014.829 1009.178 1005.944 1002.829 999.3778 993.2628 990.5428 991.4465 995.4066 999.2258 1000.78 1000.787 1000.391 999.488 997.621 995.4568 993.2758 991.7183 992.1504 995.4543 998.7667 1001.009 1002.589 1004.146 1005.704 1007.262 1008.819 1009.987 1010.283 1010.198 1009.487 1007.882 1006.101 1004.251 1002.545 1001.001 999.3937 997.5643 995.8162 994.0947 992.3732 990.6474 988.2222 985.481 982.7397 979.9944 978.188 976.3727 974.7311 972.9042 971.0172 967.2549 960.7309 954.8156 949.6232 946.2095 943.2002 940.5943 938.7753 937.2018 935.5192 933.9969 932.3326 930.6282 927.8854 924.666 923.5364 926.0401 928.4766 930.7562 932.8184 934.8807 936.6672 937.9706 939.2594 940.868 942.845 944.0046 944.4302 944.3163 943.7509 942.6089 940.9683 938.1718 934.2922 930.1989 925.9352 921.6753 918.4235 915.8253 913.1071 913.9531 917.1314 920.4266 924.8046 929.2935 934.6154 939.4078 940 941.0173 943.0523 943.8963 943.462 944.163 942.752 941.6057 940.837 939.0493 937.0535 933.1846 929.1331 926.0386 923.0372 920.506 920 920.0513 921.4323 924.4843 926.3489 928.0094 928.729 929.2457 929.3858 929.1172 931.2783 937.6479 942.5106 945.9926 948.5631 950 950.7786 951.4786 951.9244 951.9958 952.4661 953.4225 954.9626 956.7487 959.127 960 960.9355 962.2476 963.8728 965.4738 967.0638 968.2562 969.4486 970 970.6659 971.8069 972.3005 972.4974 973.1688 974.9097 976.736 979.053 979.848 980.6713 981.3538 981.9012 982.4487 982.9963 983.5444 984.1158 984.9445 984.1703 983.2642 982.2081 980.7097 978.447 975.4965 973.3153 971.7239 970.1324 967.4332 964.5233 962.9033 962.5284 962.1535 962.3452 962.7864 963.9328 966.5617 969.2814 971.3245 972.7984 974.1353 975.4722 976.8091 978.188 979.4732 980.9909 982.7185 984.5463 986.5062 988.072 990.0704 991.6102 993.3432 996.3953 999.4473 1001.295 1002.877 1004.459 1006.041 1007.6 1009.137 1010.726 1012.385 1013.635 1012.68 1011.232 1009.817 1008.912 1008.14 1007.126 1006.112 1005.524 1005.046 1004.975 1004.904 1004.833 1004.194 1003.197 1002.328 1001.572 1000.755 999.8196 998.8356 998.051 997.1599 995.908 994.7368 993.3534 991.6101 990.05 988.3427 986.8635 985.6866 984.2012 982.5743 980.947 979.6828 978.249 975.2513 972.9461 971.0706 969.3582 967.7266 966.1243 963.5421 960.5012 957.2716 953.1055 948.9474 945.3412 941.9197 940.4702 939.2993 937.617 933.1148 929.6636 927.4701 926.4473 925.813 924.5606 923.3254 921.7482 919.8508 918.2064 917.5051 916.3671 914.4737 912.5803 910.6868 907.9014 904.6181 901.009 897.6851 894.5208 891.2247 888.9657 887.3323 885.7264 886.7325 888.3633 889.9918 892.6744 893.9237 895.0435 896.1632 898.7852 900.4376 902.619 906.1943 910.1217 912.2697 914.3439 916.3925 919.2791 922.7702 925.8569 928.0161 930.0447 930.9846 932.2454 933.284 934.2639
966.5213 969.0852 970 971.8938 974.4805 977.101 979.7215 981.856 983.9328 985.9903 988.0613 991.358 995.7595 1000.069 1002.008 1004.131 1006.253 1008.376 1010.594 1013.121 1015.648 1018.177 1020.638 1022.795 1024.952 1027.109 1029.266 1027.666 1025.833 1024.001 1022.169 1020.297 1014.03 1008.958 1006.226 1003.166 1000.051 993.4058 990 987.4568 990.4724 994.3509 996.6522 997.425 996.7417 995.7006 993.9818 991.968 990.0434 987.6047 990.3158 993.6844 997.0031 1000.155 1001.749 1003.344 1004.939 1006.533 1008.142 1009.757 1010.292 1010.671 1010.337 1009.414 1007.529 1005.964 1004.451 1002.795 1000.981 999.1761 997.5208 995.8655 994.0891 992.2471 990.405 987.8615 985.0485 982.2256 979.6159 977.8933 976.3026 974.4155 972.5493 970.6084 965.1019 958.6527 953.2891 948.6943 945.9736 943.3644 940.8372 938.9312 937.4734 935.9203 934.2623 932.4959 930.4387 927.4548 924.0809 923.0536 925.3876 927.7792 930.2603 932.3224 933.8668 935.3774 936.5514 937.9744 940.02 941.5178 941.974 942.3096 941.7445 940.9917 938.9645 936.3002 932.768 928.8561 924.9045 920.7953 917.8843 915.3805 912.9063 913.6835 916.9622 920.2718 924.2415 928.2871 932.9773 936.9428 939.097 940 940.3389 939.913 939.5168 938.5033 937.5028 936.8171 935.4678 933.2877 930.3581 927.2982 924.9659 922.3268 919.7232 918.8177 919.2335 921.7393 924.6392 927.6911 929.6027 930.9223 932.053 932.7474 933.246 932.6262 934.652 938.8887 942.5533 946.4822 950 950 951.1852 953.4904 953.9362 954.0585 954.9061 955.8364 957.0959 958.5881 960.3701 961.8195 962.9143 964.0978 965.4822 967.1196 968.757 970 970 970.7399 971.9984 973.2569 974.03 974.4066 974.8823 975.7453 977.5598 979.3743 980.7656 981.682 982.4564 983.0038 983.5513 984.0988 984.6463 985.1938 984.4622 983.4349 982.5524 981.6552 980.348 977.7346 975.7823 974.1908 972.5994 970.9969 968.9164 966.0064 963.0965 961.9749 961.6 961.7706 962.2118 964.7349 967.3638 969.618 971.129 972.5222 973.9155 975.2769 976.2707 977.2645 978.1007 979.7859 981.596 983.0827 984.5694 986.4063 988.0983 989.6439 992.428 995.48 998.5321 1000.821 1002.403 1003.981 1005.517 1007.053 1008.589 1010.135 1011.478 1012.555 1013.563 1012.699 1011.2 1010.079 1009.048 1008.034 1007.072 1006.575 1006.504 1006.433 1006.362 1006.291 1005.84 1004.841 1004.068 1003.304 1002.391 1001.437 1000.453 999.7948 998.7525 997.5814 996.4103 994.8126 993.5573 991.8829 990.1726 988.7247 987.2932 985.6661 984.0366 982.7619 981.7036 980.5861 979.3663 977.2282 974.4323 972.2272 971.3148 969.6696 966.4894 963.3093 958.612 954.7568 951.6038 948.4971 948.119 947.2729 945.516 942.6518 939.2848 936.7127 933.3672 930.0217 928.7126 927.4243 926.1826 924.3124 922.3897 920.467 918.6252 916.864 915.1027 913.2778 911.3257 908.8771 905.1094 901.3236 897.8495 894.5535 891.2575 888.9821 887.3362 885.6866 886.6707 888.3253 889.9416 892.6744 895.3623 897.9037 899.5172 902.9841 905.3188 908.984 911.4733 913.4658 915.2495 917.5018 920.1964 924.0452 927.645 930.6096 931.9185 932.8538 933.8026 935.0105 936.2442 937.4008
966.9056 969.4695 970 971.2716 973.5671 975.9311 978.295 980.7463 983.3139 985.8815 988.4491 992.209 997.4586 1000.793 1002.67 1004.546 1006.423 1008.414 1010.639 1013.166 1015.774 1018.383 1020.731 1022.652 1024.573 1026.722 1028.879 1027.635 1025.802 1023.928 1022.053 1020.178 1013.026 1008.412 1005.68 1002.949 1000.218 994.5626 988.1685 982.8014 986.3571 989.9128 992.0521 993.1716 992.8223 991.9051 990.3013 988.5709 986.5407 982.9955 988.8058 992.2305 995.2248 998.5435 1000.895 1002.49 1004.097 1005.712 1007.336 1008.933 1010.129 1010.631 1010.807 1010.273 1009.382 1007.886 1006.184 1004.428 1002.826 1001.088 999.3605 997.5417 995.7669 993.9921 992.2173 990.1785 987.4056 984.5646 981.7237 979.5614 977.8192 975.9691 974.1191 972.1351 970.0975 963.3243 957.0269 951.9808 948.701 946.2177 943.937 941.6411 939.5179 937.9073 936.2966 934.2793 932.222 930.1105 926.7188 923.4802 922.1904 924.6263 927.1679 929.6675 931.2736 932.755 933.7903 935.0502 937.0966 938.2775 939.0757 939.9503 939.2729 937.9741 936.3837 933.7656 930.9682 927.1812 922.9185 919.5515 917.7672 915.293 912.8188 912.9914 916.4385 919.7305 923.5164 927.3487 930.8849 934.0734 936.5905 937.4324 936.9894 936.2722 935.876 934.4076 933.2023 932.0982 929.8782 927.3247 925.3064 922.547 920.4037 919.0061 917.7997 917.6039 919.4075 923.6347 928.5831 930.8079 932.3496 933.5987 935.3117 936.4757 937.5134 937.5074 939.834 940 940.4926 946.4996 950 950 951.5919 953.9744 955.9479 956.189 957.3461 958.2502 959.5098 960.7933 962.1895 963.9562 964.8931 966.0139 967.3412 968.7168 970 970.5799 971.4138 972.2302 973.3309 974.5894 975.3538 976.3151 976.5957 977.4496 978.3954 980.1724 981.6624 982.6927 983.559 984.1064 984.6539 985.2014 985.7489 985.6003 984.1577 983.1014 982.0674 981.0334 979.9728 978.1731 976.437 974.7008 972.9647 971.2285 969.3467 967.1125 964.5797 961.6697 961.0464 961.1959 962.9081 965.4554 967.4695 969.4836 971.0361 972.0743 973.0682 974.062 975.0558 976.0496 976.92 978.543 979.7283 981.1459 982.7333 984.4016 986.4357 988.5334 990.9937 994.2961 997.5984 1000.347 1001.897 1003.414 1004.886 1006.358 1007.83 1009.222 1010.417 1011.471 1012.277 1013.549 1012.542 1011.014 1009.955 1008.941 1008.154 1008.034 1007.962 1007.891 1007.82 1007.749 1007.486 1006.577 1005.809 1004.947 1004.019 1003.035 1002.058 1001.359 1000.362 999.2548 998.055 996.6723 995.4262 993.7159 992.0542 990.4167 988.7556 987.1261 985.7319 984.5376 983.1747 982.2545 981.4214 980.14 976.2949 974.8133 973.2927 971.3516 969.0341 964.8241 959.8796 956.5076 953.3566 952.6767 952.4741 951.8047 950.5684 948.3171 945.1234 942.6566 939.3184 935.6772 933.0787 930.5626 928.7993 926.9131 925.0245 922.1664 919.5738 917.8035 915.8117 913.6847 911.5577 908.9868 905.2009 900.8708 897.4672 894.3067 891.1462 889.0084 887.3336 885.6723 886.53 888.0679 889.6058 892.9607 896.2361 898.7542 901.6656 905.1733 908.836 911.5646 913.4119 915.564 917.7931 920.0339 924.1157 928.1746 931.0426 932.6845 934.3015 935.6641 936.6207 937.8286 939.0364 940.5839
967.2579 969.8538 970.4807 972.491 974.5234 976.6697 979.0336 981.5765 984.2181 986.7256 989.233 993.0068 998.6035 1001.417 1003.275 1005.13 1006.985 1008.839 1010.931 1013.456 1016.066 1018.675 1020.946 1022.867 1024.788 1026.709 1028.609 1027.509 1025.618 1023.727 1021.836 1019.766 1011.742 1007.874 1005.149 1002.419 999.4476 994.6118 989.0781 984.4098 981.2383 984.7613 986.8482 988.4275 989.0781 988.5636 987.4299 985.4994 983.8188 982.8073 988.1075 991.8931 994.7007 997.5082 1000.089 1001.736 1003.383 1004.947 1006.382 1007.715 1009.239 1010.307 1011.088 1010.949 1010.466 1009.572 1007.871 1006.364 1004.831 1002.984 1001.311 999.5028 997.728 995.9532 994.0087 991.9606 989.8665 987.0255 984.1846 981.8198 979.389 977.5389 975.689 973.6617 971.6241 968.4473 960.9154 956.0092 952.2023 949.8046 947.5239 945.2432 942.6974 939.9416 938.1199 936.1551 934.1926 931.9157 929.3002 926.3878 923.4792 921.2094 923.6655 926.0314 928.1497 930.026 931.0292 932.126 933.71 934.1135 934.367 934.9646 933.7024 933.0557 932.4279 930.8022 928.1469 924.4546 920.1918 918.6418 917.2197 915.2055 912.7313 912.2993 915.7463 919.1934 922.5921 925.9802 929.3682 931.7296 934.3334 934.3695 933.8618 932.8909 932.1916 930.6733 928.4861 925.9586 923.4195 921.2567 919.8652 918.9639 917.8719 916.7607 916.065 918.1107 920.3871 925.611 930.4678 932.8101 934.7538 936.2751 937.8563 939.7999 941.0529 941.8024 942.1612 941.5154 942.6424 943.8664 949.8118 950 951.9986 954.381 956.7635 958.3986 959.4215 960.6849 961.9836 963.2825 964.6007 965.7756 967.1518 967.9667 969.2573 970 971.376 972.3204 973.1543 973.9882 974.7341 975.9219 976.8315 977.5635 978.4218 979.1631 980 980.8586 982.3486 983.7034 984.6198 985.209 985.7565 986.304 986.83 985.3873 983.9447 982.7231 981.7399 980.7059 979.4524 977.848 976.312 974.6644 972.9697 971.275 969.4241 967.2928 965.1763 962.942 960.493 961.0814 963.3069 965.1777 966.7912 968.8517 970 970.8594 971.8533 972.847 973.8408 974.3911 975.7393 976.9987 978.1841 979.3694 981.3298 983.4585 985.5873 987.716 989.8521 993.2206 996.6802 999.3302 1000.976 1002.448 1003.92 1005.392 1006.864 1008.121 1009.326 1010.162 1011.016 1012.564 1013.064 1011.945 1010.858 1009.849 1009.563 1009.492 1009.421 1009.349 1009.278 1009.207 1009.132 1008.313 1007.492 1006.589 1005.622 1004.552 1003.664 1002.783 1001.786 1000.79 999.7874 998.6194 997.2592 995.5945 993.9975 992.3732 990.2773 988.702 987.3604 985.9975 984.7558 983.9228 982.6013 980.9166 978.3119 976.787 974.8459 972.8345 970.566 966.2437 961.2901 957.738 956.7407 956.1588 955.6807 954.1582 952.7387 951.5372 950.3131 947.3417 944.0192 940.6701 937.5117 934.4281 931.8557 929.4352 926.6858 923.9363 920.6296 917.9113 915.7483 913.7116 911.6091 909.0775 904.6924 900.3073 897.061 893.9529 890.8743 888.9131 887.3951 885.8084 886.2537 887.7488 889.2701 892.0915 896.0725 899.8079 903.0451 906.3418 909.7517 912.7019 915.4644 917.4256 919.6547 922.8738 927.0308 930.6865 932.7581 934.6111 936.3718 938.0134 939.4387 940.6624 941.8687 942.9893
967.9029 970 971.7976 973.851 975.8593 977.8367 979.8142 982.4097 985.0765 987.7433 990.413 994.3503 999.3522 1001.67 1003.559 1005.447 1007.336 1009.21 1011.428 1013.915 1016.403 1018.967 1021.161 1023.078 1024.879 1026.679 1028.48 1026.763 1024.944 1023.172 1021.41 1018.153 1010.115 1007.325 1004.611 1001.889 998.5088 993.7807 989.4501 984.2339 980.4803 980 981.9296 984.9712 985.7843 985.8777 984.7426 982.912 980.9039 982.6326 987.5283 991.5557 994.2714 996.7128 999.1543 1000.961 1002.437 1003.818 1005.038 1006.562 1007.953 1009.739 1010.639 1011.328 1011.083 1010.463 1009.902 1008.574 1006.633 1004.948 1003.323 1001.502 999.6891 997.8189 995.7951 993.7426 991.6853 989.4864 986.6995 984.1255 981.4083 979.1088 977.226 975.1884 973.4678 971.7696 968.8787 959.7974 955.9904 953.5818 951.1732 948.8301 946.2326 943.3862 940.1735 938.1436 936.1272 933.7993 931.7503 929.3009 926.5005 923.8802 921.0917 922.4086 924.5683 926.3376 927.681 929.028 929.4379 929.9156 929.9373 929.2026 928.6974 928.2542 927.8231 926.5422 924.6154 921.728 919.1544 917.7322 916.3101 914.8879 912.6438 911.6072 915.0542 918.4976 921.9227 925.3372 928.7266 930 931.6797 931.1974 930.6896 929.9105 927.0956 924.4561 921.7949 919.6904 918.6855 918.0042 917.3507 916.7501 915.6479 914.8185 917.0646 919.125 922.8981 927.9623 931.3774 933.7427 936.0959 938.3295 940.3882 942.2703 944.0262 945.2197 945.912 945.8801 946.2533 943.8539 946.5323 950.0228 952.4053 954.7877 957.2225 959.7687 961.7034 963.124 964.4728 965.7716 967.2319 968.3054 969.3788 970.1266 970.4797 970.7349 971.9352 973.5372 974.8948 975.7287 976.5242 977.2544 978.3093 978.9006 979.8485 980.2158 981.1913 982.8134 983.0347 984.5247 985.6305 986.3116 986.8591 987.4066 986.617 985.1744 983.7317 982.3211 981.3859 980.3784 978.9058 977.1801 975.619 974.2322 972.6285 971.0248 969.1311 966.8057 964.4803 962.3633 960.4016 960.2458 961.8459 963.9064 965.9669 968.0273 970 970 970.6383 971.6321 972.6259 972.8734 974.2692 975.4545 977.1849 979.0394 981.0261 983.1549 985.2892 987.4302 989.5711 992.7666 995.8356 998.0246 1000.01 1001.482 1002.954 1004.426 1005.81 1007.019 1008.199 1009.455 1010.159 1011.382 1011.78 1012.241 1011.341 1010 1009.94 1009.88 1009.586 1009.201 1008.817 1008.432 1008.282 1008.837 1009.135 1008.208 1007.148 1006.057 1005.204 1004.207 1003.187 1002.035 1001.123 1000.367 999.1663 997.5809 995.9954 994.251 992.1591 990.2559 988.8203 987.4575 986.4241 985.0626 983.3779 981.7415 980.0984 978.0843 976.0539 973.7167 971.0434 966.873 962.4663 961.1854 960.2138 959.4883 957.8663 956.2441 954.909 953.6315 951.9482 950.4222 947.5967 944.1561 940.6849 937.5747 934.6882 931.7243 928.9576 925.5928 921.5987 918.5129 916.0333 913.5536 911.1056 908.0739 903.8688 899.7982 896.7628 893.6842 890.6056 888.7806 887.2626 885.8063 886.0643 887.5585 888.946 890.8411 894.9311 899.6364 903.0955 906.5026 909.9623 913.7968 916.5007 919.2232 922.3132 925.7137 929.4636 931.5673 933.3287 935.383 937.6604 939.9379 942.3072 943.5408 944.6613 945.7818
968.7839 970.802 973.0905 975.1678 977.2213 979.2486 981.2762 983.3345 985.9993 988.6732 991.9793 995.9521 1000.034 1001.921 1003.799 1005.676 1007.554 1009.432 1011.749 1014.258 1016.69 1019.087 1021.049 1022.742 1024.501 1026.271 1027.956 1026.255 1024.554 1022.853 1021.158 1017.404 1009.49 1006.776 1004.057 1001.309 997.9197 993.7811 989.4506 983.7237 978.9751 977.58 978.6564 981.1854 982.4905 982.9673 981.9794 980.402 980 980.5093 986.455 991.0416 993.5731 995.7834 997.8408 999.8981 1001.253 1002.474 1003.885 1005.11 1006.618 1008.407 1010.071 1010.748 1011.491 1011.143 1010.644 1010.082 1008.42 1007.062 1005.334 1003.514 1001.47 999.6054 997.5816 995.5246 993.4673 991.4101 989.1485 986.4312 983.714 980.9967 978.819 976.9318 975.0144 973.0724 971.0756 966.5617 959.7363 957.2603 954.7842 952.5265 949.6968 946.636 943.4234 940.2159 938.1444 936.3582 934.0548 931.8132 929.7938 927.0684 924.2501 921.8247 920.9241 922.6404 923.9918 925.3458 923.2197 922.9655 923.3173 923.1074 923.6989 923.6447 923.2719 922.3114 920.5305 918.7755 918.2428 916.8226 915.4004 913.9783 912.5562 910.915 914.361 917.7996 920.8169 923.4208 925.227 926.3576 927.3637 926.1169 925.1185 922.7672 920.0122 918.9293 917.8536 916.9641 915.9592 915.3382 914.8361 914.2231 913.6124 915.8282 918.0572 920.345 925.316 927.9014 930.5663 933.5745 936.5825 939.3818 942.217 944.7343 946.5261 948.1929 949.3433 950.1161 950.1266 949.9012 949.4296 951.4176 953.5189 956.0651 958.6113 961.0684 963.3865 965.1981 966.9119 968.2607 969.7396 970.5849 971.2553 971.8361 972.2188 972.4658 973.2501 974.6125 975.8647 977.3003 978.303 979.0281 979.7872 980.6425 981.494 982.4457 983.3606 984.4396 984.954 985.2109 986.6412 987.4142 987.9617 987.8467 986.4041 984.9614 983.5187 982.0761 980.9839 980.0487 978.3591 976.6334 974.9077 973.39 972.1523 970.5487 968.4421 966.074 963.8383 961.6078 959.4775 959.0469 961.2236 963.299 965.3744 967.4854 968.8107 970 970 970.4172 970.8991 971.5396 973.2112 975.0658 976.9203 978.7749 980.7254 982.8281 984.9307 987.0334 989.136 991.925 994.73 996.7189 998.7079 1000.516 1001.988 1003.459 1004.709 1005.85 1007.083 1008.339 1009.599 1010.45 1011.077 1011.05 1010.394 1008.981 1008.099 1007.715 1007.33 1006.946 1006.561 1006.228 1006.464 1007.048 1007.684 1008.425 1008.66 1007.561 1006.628 1005.532 1004.396 1003.158 1002.385 1001.518 1000.64 999.5788 997.9933 996.1288 994.1979 992.2947 990.3914 988.9255 987.5239 985.9997 984.5048 982.8625 981.1193 979.2733 976.8074 973.9255 971.0435 967.8615 965.8708 964.3669 963.3233 961.8027 959.9522 958.3301 956.9499 955.1171 953.5912 952.0652 950.2294 946.9459 943.468 940.0556 936.7964 934.0106 930.6944 926.8076 922.6798 918.8654 916.3108 913.7864 911.2352 907.6119 903.0889 899.2438 896.2917 893.3396 890.3369 888.6974 887.2978 885.9199 885.7687 887.1219 888.4887 889.8901 894.363 899.1165 902.9227 906.4783 909.938 913.9204 917.9123 920.7651 923.8091 927.14 930.425 932.3197 934.2095 935.9709 937.8265 940.2008 944.6011 946.132 947.1539 948.1758
969.0215 970.1954 972.4839 974.7723 977.2547 980.0112 982.4456 984.8041 986.8625 989.5353 992.9065 996.4102 1000.045 1001.934 1003.827 1005.721 1007.615 1009.509 1011.819 1014.251 1016.604 1018.958 1020.89 1022.552 1024.246 1025.94 1027.201 1025.75 1024.079 1022.408 1020.737 1016.196 1009.174 1006.147 1003.121 1000.222 996.5802 992.8594 988.3534 984.0775 979.8261 975.5732 975.0147 977.0461 979.3782 979.858 978.9622 978.1577 980 982.0578 986.6631 990.3831 992.5261 994.669 996.812 998.3762 999.8884 1001.207 1002.268 1003.498 1005.172 1006.713 1008.558 1010.195 1011.01 1011.597 1011.146 1010.577 1010.136 1009.167 1007.16 1004.967 1003.081 1001.255 999.3639 997.3256 995.3059 993.1683 990.8434 988.3431 985.8236 983.129 980.2659 978.2592 976.3403 974.3496 972.606 970.6378 966.1361 961.2486 958.6063 956.4185 953.6285 949.8858 946.6733 943.2496 940.9391 938.5969 936.2549 934.2935 932.384 930.0576 927.621 925.2851 922.9859 921.0809 920.3095 921.6635 919.8445 918.6515 918.5675 918.7458 919.1071 919.2343 918.952 918.6926 917.373 916.3942 915.9389 915.4836 914.4861 913.0662 911.6462 910.2229 913.2222 915.7297 918.2068 920.0092 921.3247 921.7689 921.7473 920.597 919.5516 918.4201 917.1183 916.0425 914.9669 914.1287 913.233 912.6661 912.2718 913.7021 915.2892 917.0671 919.055 921.9547 925.0861 928.2379 930 933.3773 937.4655 940.4299 943.5862 946.7269 949.0261 950.4906 951.55 952.0306 952.1296 952.0497 951.8896 952.9256 955.1582 957.5898 960 962.3503 964.7007 966.7831 968.5947 970.3641 971.3124 972.1916 972.8986 973.5455 973.9579 974.1967 974.6725 975.8485 977.2825 978.5493 979.8015 981.1475 982.1487 983.1517 983.8942 984.6757 985.6274 986.3129 987.1599 987.1524 987.387 988.5168 989.0643 987.6337 986.1911 984.7484 983.3058 981.8632 980.5819 979.2302 977.1923 975.6357 974.361 972.6354 971.1609 969.9699 967.739 965.3709 963.0028 960.6931 958.4338 958.4372 960.6891 962.7849 964.8428 966.1653 967.3641 968.2933 968.9864 969.255 969.3276 970.8007 972.6094 974.4201 976.2667 977.9479 979.4676 981.4241 983.5268 985.5822 988.0977 991.0098 993.4244 995.4133 997.4023 999.3912 1001.021 1002.398 1003.543 1004.711 1005.966 1007.241 1008.567 1009.921 1010.021 1009.663 1009.077 1007.547 1006.005 1005.459 1005.074 1004.69 1004.305 1004.175 1004.647 1005.261 1005.952 1006.714 1007.474 1008.289 1007.877 1006.757 1005.519 1004.402 1003.595 1002.609 1001.738 1000.866 999.9913 998.14 996.2429 994.3483 992.4537 990.413 988.7631 987.2681 985.6267 983.8835 982.317 980.4523 977.8262 975.0587 972.5047 970.4976 968.937 967.3239 966.0487 964.1913 962.3339 960.2737 958.4249 956.7602 955.0572 953.1745 951.2918 948.9084 945.4871 942.1143 938.595 935.2885 931.8575 927.7915 923.4578 919.3839 916.3939 913.4037 910.9005 907.098 903.0121 899.7227 896.9572 893.9969 890.8828 889.0137 887.6176 886.2194 885.4266 886.8852 888.2627 889.6293 893.4495 898.1922 902.2246 905.8372 909.9623 913.9455 917.9134 921.5293 924.7548 927.9788 930.6726 932.5706 934.4685 936.3665 938.2644 939.9941 942.9211 944.4257 945.9302 947.4348
969.259 970 972.2697 975.0276 977.7855 980.4796 982.9141 985.3484 987.8007 990.3086 993.366 996.5372 999.7084 1001.768 1003.715 1005.662 1007.608 1009.509 1011.819 1014.276 1016.732 1019.187 1021.058 1022.646 1024.235 1025.823 1026.15 1024.709 1023.315 1021.921 1020.316 1014.483 1008.917 1005.742 1002.568 999.2843 995.5392 991.8729 988.4856 984.6879 980.6769 976.1071 972.5051 974.444 976.7924 977.2722 974.8587 973.6812 978.6133 982.1341 985.1326 989.196 991.7189 993.6138 995.2003 996.7125 998.1897 999.3268 1000.472 1001.934 1003.353 1005.076 1006.649 1009.366 1010.575 1011.091 1011.571 1011.078 1010.674 1010.169 1008.502 1006.518 1004.668 1002.673 1001.003 999.2385 997.0282 994.6044 992.4666 990.5877 987.9644 985.1418 982.2639 979.5865 977.7509 976.0504 974.1373 972.3369 970.5641 967.3673 963.9277 960.488 957.428 953.9335 949.5191 946.3389 944.1811 940.9983 938.8182 936.9332 934.7934 933.0187 930.9547 928.5983 926.0932 924.1975 922.9598 921.7492 919.9211 918.5231 917.257 915.6782 915.7625 915.5062 915.7585 915.7819 914.4683 914.013 913.5577 913.1024 912.6472 912.1494 910.7294 910 910.915 914.1008 916.969 917.8465 918.3058 918.4757 917.9551 917.4299 916.9031 915.9684 914.5405 913.1669 912.1117 911.2895 911.8936 913.3228 914.4163 915.8467 917.2766 918.74 920.9282 923.0064 925.9989 929.1507 930 932.2094 936.96 942.2266 945.5217 948.6326 951.1523 952.261 953.4413 953.9451 954.0799 954.1331 953.9429 954.6 956.2566 958.0683 960.7254 963.4133 965.9826 968.3329 970.1611 971.7846 972.8885 973.6569 974.5361 975.2123 975.697 975.9275 976.1306 977.2565 978.4785 979.9125 982.861 983.9719 984.6591 985.6608 986.4022 986.9978 987.8574 988.5901 989.3142 989.271 989.3508 989.5632 988.8635 987.4208 985.9781 984.5355 983.0928 981.6501 980.2075 978.3542 976.3163 974.2784 972.4028 971.1683 969.9236 968.2138 966.2421 964.2311 961.9216 959.5818 957.19 957.8973 960.2209 962.1974 963.3373 964.2664 965.1956 965.7437 966.5409 967.4185 968.9966 970.0557 971.9024 973.7491 975.58 976.7161 978.366 979.9952 982.0242 984.3509 987.2208 990.0947 992.1188 994.1077 996.0967 998.0856 1000.055 1001.237 1002.374 1003.594 1004.883 1006.164 1007.261 1009.134 1009.984 1007.707 1007.261 1005.993 1004.535 1003.332 1002.818 1002.434 1002.235 1002.29 1002.837 1003.513 1004.235 1004.998 1005.884 1006.764 1007.527 1007.88 1006.642 1005.664 1004.624 1003.707 1002.835 1001.936 1000.969 1000.109 998.3464 996.4518 994.5573 992.4436 990.0504 988.46 987.0052 985.5504 983.7462 981.6382 979.3832 976.654 974.5402 972.447 971.3215 970.196 968.0726 965.8385 963.6602 961.779 959.8552 957.8934 955.9316 953.9698 952.0591 950.4635 947.6216 943.8223 939.9178 936.4869 932.5743 928.4729 924.1998 919.9025 916.9124 913.7374 910.5325 907.1886 903.817 900.7185 897.5303 894.3412 891.1782 889.1083 887.6873 886.2663 885.2687 886.6353 888.0018 889.3684 892.5459 897.2795 901.6664 905.5802 909.4094 913.5521 917.7604 921.4767 924.6074 927.7381 930.5267 932.4247 934.1844 935.8534 937.5225 939.1915 940.8934 942.7222 944.551 946.4026
969.4965 971.3956 973.6236 975.8516 978.3162 980.9481 983.3826 985.817 988.2513 990.8081 993.6718 996.5355 999.3991 1001.593 1003.616 1005.64 1007.664 1009.687 1011.959 1014.276 1016.594 1018.911 1020.824 1022.25 1023.676 1025.102 1025.408 1024.042 1022.632 1021.186 1018.957 1012.912 1008.279 1004.997 1001.774 998.3483 994.7705 991.2358 987.905 984.6838 980.7203 976.2657 972.5759 971.8419 974.192 973.6683 972.1157 974.8213 979.8799 982.8821 985.8026 988.6094 990.4127 992.0027 993.5366 994.9709 995.9979 997.2241 998.6337 1000.118 1001.595 1003.064 1004.853 1007.928 1010.021 1010.511 1010.949 1011.38 1011.007 1010.469 1009.854 1007.859 1005.865 1004.14 1002.476 1000.574 998.3485 996.2371 994.29 992.1365 989.9772 987.1479 984.2618 981.5257 979.4517 977.6556 975.8567 973.9368 972.017 970.0971 966.8972 963.8831 961.2525 958.0505 953.4435 949.5809 947.1844 944.3799 941.9064 939.5751 938.0349 936.0921 934.1373 931.8228 929.2006 927.3141 926.2269 924.8232 922.978 921.0638 919.6539 917.9467 916.2043 914.7507 912.9016 912.7372 912.0871 911.6318 911.1765 910.8062 910.5398 910.2734 910.007 910 910.0519 912.905 914.8185 915.525 916.0005 915.9417 915.0096 914.5364 914.4149 913.5582 912.1302 910.7023 911.7054 913.1187 914.4616 915.9436 916.9119 917.9913 919.4211 922.9586 923.3559 925.7023 927.1083 930 930 933.6548 938.449 942.9368 947.9688 950.7136 952.7695 954.0502 955.2117 955.8596 956.0302 956.2164 955.9822 956.2744 957.931 959.5876 961.4309 964.1591 966.8471 969.5352 971.5816 973.2051 974.5266 975.2759 976.0253 976.8556 977.4361 977.6584 977.8615 978.6789 979.8406 982.8658 986.1823 986.9346 987.5273 988.1706 988.9102 989.412 990.1393 990.7706 991.1971 991.0297 991.7573 992.1799 990.224 988.7081 987.2899 985.8718 984.2039 982.2883 980.3728 978.0701 975.6738 973.5448 971.4737 969.28 967.621 966.1942 964.4607 962.5135 960.5369 958.2632 955.7659 957.3524 959.6535 960.2396 961.1688 962.0978 963.027 963.2177 964.0954 966.6039 969.3152 970 971.2314 973.0781 974.1 975.6144 977.2338 978.8096 980.6041 983.1447 985.664 988.1834 990.5554 992.5465 994.6862 996.7059 998.2447 1000.067 1001.222 1002.483 1003.58 1004.676 1005.773 1008.348 1009.967 1007.555 1005.305 1004.377 1002.911 1001.523 1000.659 1000.295 1000.181 1000.468 1001.074 1001.787 1002.523 1003.431 1004.469 1005.239 1006.241 1006.995 1007.749 1006.701 1005.676 1004.804 1003.822 1002.914 1001.916 1001.057 1000.203 998.5554 996.6608 994.4742 992.3754 990.3378 988.7469 987.0181 984.9321 982.8242 980.746 978.5828 976.3381 974.5101 973.3846 971.4167 969.2559 967.0467 965.089 962.6003 960.1117 958.1263 956.2765 954.6808 953.0471 951.3712 949.2877 945.3685 941.2557 937.1255 933.0806 929.0068 924.8406 920.2618 916.8129 913.4349 910.0039 906.9787 903.9182 900.8578 897.6772 894.4499 891.2172 889.136 887.7678 886.3768 885.0483 886.402 887.7556 889.1092 891.6456 896.4504 901.0225 904.8642 908.6517 912.7102 916.5818 920.2216 923.4393 926.657 930.2042 931.9028 933.6015 935.3002 937.0122 938.7858 940.5767 942.4529 944.3643 946.2758
971.6883 973.1678 974.5209 976.2846 978.616 980.9558 983.3077 985.7416 988.2099 990.947 994.3933 997.1632 999.9716 1001.984 1003.925 1005.866 1007.807 1009.749 1011.959 1014.21 1016.499 1018.8 1020.688 1022.128 1023.567 1024.88 1024.285 1023.127 1021.853 1020.553 1016.446 1010.557 1006.961 1003.628 1000.552 997.6681 994.1335 990.5988 987.3245 984.1032 980.7206 976.7387 973.0489 970.7982 971.5898 971.3943 974.0999 976.8055 980.0696 982.8203 985.4313 987.2272 988.8083 990.3218 991.7522 992.8415 993.8951 995.265 996.7398 998.22 999.5154 1000.798 1003.203 1005.642 1007.663 1009.903 1010.511 1010.955 1011.169 1010.656 1010.208 1009.056 1007.276 1005.382 1003.422 1001.67 1000.03 997.9803 995.8264 993.6724 991.5186 989.0853 986.0454 983.7781 981.4587 979.1208 977.2009 975.2811 973.3612 971.5792 969.7925 966.7784 964.2964 961.7796 958.8069 954.7335 950.7393 947.8233 945.5036 943.3613 941.6093 939.2947 937.3398 935.1438 932.4666 930.8486 929.462 927.8972 926.0637 924.1685 922.642 920.8845 919.1127 917.463 915.2181 914.0766 912.5631 911.6667 911.0368 910.7743 910.5118 910.2493 910 909.4094 909.4764 911.57 912.5272 913.1601 913.7068 913.4077 912.3922 911.6429 911.9266 911.148 910.7031 912.4392 914.2073 915.8895 917.2263 918.5457 919.5566 921.6237 925.7606 927.7947 927.7259 928.3982 929.8042 932.174 935.0948 937.2476 940 943.6982 949.7902 952.3308 954.3867 956.1378 956.9821 957.774 957.9804 958.1934 958.0215 957.9489 959.6055 960 962.2988 965.5538 968.2551 970.7147 972.7518 974.6257 976.1647 976.9141 977.6634 978.4127 979.1613 979.3892 979.5923 980.4612 985.5585 986.6811 989.3045 989.8972 990.3527 990.7793 991.1722 991.587 992.1693 992.794 992.7278 992.5986 993.4408 994.0765 992.2045 990.1705 988.2112 986.2957 984.3801 982.4646 980.5491 978.2906 975.8943 973.498 971.1018 968.5709 966.0746 963.8959 962.342 960.6085 958.7617 956.5615 954.3813 956.587 958.7928 960 960 960 960.8584 960.7722 963.2789 965.8764 968.4739 970 970.5604 971.7322 972.8629 974.4724 976.172 978.2837 980.4517 982.8641 985.2767 987.4737 989.4022 991.4764 993.2481 994.6976 996.3273 998.1931 999.8773 1000.995 1002.092 1003.188 1004.914 1007.561 1009.95 1007.861 1004.471 1002.844 1001.21 999.7916 998.4041 997.8516 997.713 997.8913 998.9468 1000.06 1000.978 1002.016 1002.95 1004.138 1004.892 1005.661 1006.454 1006.984 1006.708 1005.707 1004.799 1003.855 1002.866 1002.005 1001.151 1000.297 998.7643 996.6707 994.9163 992.835 990.2982 988.3031 986.4567 984.6104 982.7558 980.3997 978.1361 976.5733 974.6659 972.5417 970.3473 967.871 965.3818 962.8926 960.4759 958.6756 957.0051 955.3345 953.6641 951.9935 950.338 946.4637 942.1239 937.9347 933.8898 929.8289 925.1997 920.5705 916.9385 913.4433 909.9562 907.0089 904.0576 900.9971 897.8241 894.5601 891.1879 889.1204 887.7713 886.4022 885.0331 886.2789 887.6234 888.9325 890.8058 895.6376 900.3553 904.1428 907.9303 911.144 914.5262 918.0287 921.4067 924.6462 929.3301 931.4557 933.158 934.9316 936.6177 938.3124 940.086 942.1121 944.1381 946.1489
974.3802 975.7866 977.1397 978.3033 979.3213 980.8213 983.287 985.7554 988.2237 990.9662 994.4125 997.8588 1000.501 1002.324 1004.148 1005.971 1007.794 1009.732 1011.94 1014.191 1016.441 1018.694 1020.547 1021.944 1023.345 1023.474 1022.846 1021.93 1020.762 1018.623 1014.639 1009.362 1005.844 1002.482 999.2288 996.4309 993.4964 989.9651 986.7439 983.5226 979.5527 976.9592 973.4871 970.1287 970 971.8143 974.2093 976.9087 979.6486 982.1219 983.9613 985.6251 986.9628 988.4608 989.7633 990.5672 991.9459 993.3547 994.7934 996.1276 997.4144 998.8718 1000.971 1003.217 1005.697 1008.267 1010.146 1010.557 1010.812 1010.856 1010.439 1010.022 1008.139 1006.263 1004.622 1002.92 1001.143 999.2064 996.9813 994.7574 992.6729 990.5884 988.232 985.8694 983.3824 980.6595 978.5452 976.6253 974.9044 973.2084 971.5125 969.6859 967.2715 964.7548 962.238 959.5486 955.5289 952.1534 949.407 947.2607 945.5316 943.5262 940.7659 938.4648 936.6243 934.7935 932.9633 931.1348 929.1679 927.2737 925.5909 923.7402 922.0039 920.1446 917.8647 916.4388 914.436 913.5396 912.6431 911.7467 910.8503 910.1944 909.6521 908.2998 908.8442 909.9073 910.1622 910.7951 911.413 910.865 910 910 910 911.4577 913.1937 914.9298 916.7092 918.5184 920.0565 924.8876 928.8563 931.0792 932.1591 932.7635 933.3333 932.1599 932.7249 935.9466 940.2175 943.0851 943.004 944.8831 950.1422 952.999 955.8557 958.0599 959.0154 959.7177 959.9307 960.1794 960.0781 959.6233 960 961.0452 962.8164 966.2814 969.6631 971.7817 973.8188 975.8558 977.6697 978.5521 979.3015 980.1311 982.0651 984.1844 984.9431 987.9879 990.0361 990.3894 991.472 992.0587 992.4853 992.9119 993.2693 993.6599 994.1992 994.8174 994.2585 994.2821 995.1243 994.1799 992.2733 990.5172 988.5325 986.5647 984.5969 982.6409 980.7253 978.511 976.223 974.2986 972.3743 970.4499 967.3918 963.988 960.5841 959.7916 957.7916 955.7302 953.7127 955.9185 957.5731 959.0721 959.9614 959.9737 959.0685 960.1028 962.7034 965.1773 967.1609 968.4122 969.1979 970.2521 971.9487 974.0604 976.172 978.2837 980.4517 982.6521 984.5563 986.3336 988.1108 989.7881 991.3475 992.5439 994.5267 996.742 998.0721 999.4022 1000.604 1001.7 1004.128 1006.775 1009.422 1008.167 1004.777 1001.387 1000 997.6656 996.0361 995.343 995.0714 995.0524 996.16 997.3369 999.2111 1000.601 1001.772 1002.789 1003.617 1004.496 1005.131 1005.693 1006.223 1006.595 1005.822 1004.766 1003.815 1002.953 1002.099 1001.245 1000.368 999.248 997.4347 995.0397 992.7946 990.414 988.4747 986.6284 984.643 982.2869 979.9341 977.8204 975.4199 973.0194 970.619 968.1526 965.7374 963.4051 961.1081 959.1354 957.4648 955.7944 954.1238 952.7494 950.6526 947.0519 942.6089 938.199 934.0723 929.9134 925.6216 921.6652 917.858 913.9285 909.9479 906.9926 904.0373 901.082 897.8417 894.3536 890.8655 889.0087 887.6927 886.3766 885.0607 886.1255 887.4234 888.7038 889.9842 894.7868 899.6198 903.4309 906.7325 909.7832 912.9352 916.095 919.3187 923.4134 927.9885 930.9304 932.5773 934.2311 935.9935 937.8187 939.7346 941.7648 943.8134 945.8499
973.5842 975.0418 976.2386 977.4353 978.6321 980.708 983.201 985.6939 988.1869 990.9831 994.4255 997.8679 1000.708 1002.568 1004.429 1006.27 1008.086 1009.901 1012.086 1014.291 1016.497 1018.702 1020.525 1021.657 1022.24 1022.032 1021.455 1020.733 1018.856 1015.783 1012.398 1008.331 1004.892 1001.489 998.3706 995.4235 992.4763 989.3846 985.0717 980.2832 977.7482 975.3549 972.9615 969.5648 968.1837 970.6848 973.4087 976.1326 978.6872 980.6519 982.4419 983.7302 985.0825 986.2155 987.0682 988.3315 990.0056 991.3571 992.6455 994.0749 995.3676 997.2156 998.9638 1001.296 1003.799 1006.302 1008.685 1010.183 1010.366 1010.562 1010.426 1010.098 1009.035 1007.26 1005.486 1003.71 1001.933 1000.156 998.0595 995.9825 993.9055 991.9162 990.2031 987.9175 985.289 982.5661 979.9041 978.1444 976.3848 974.6251 972.8655 971.0008 968.9463 966.7 964.4537 962.2074 960.0359 957.0782 954.1025 951.1268 949.4539 947.8673 945.2881 943.0014 940.3246 938.3856 936.5552 934.5802 932.4885 930.4148 928.4639 926.5961 924.82 922.7466 920.5771 918.6527 916.3088 915.4124 914.516 913.6196 912.7231 911.155 909.3765 907.9595 907.7587 908.6645 909.5703 909.541 909.4738 909.8425 910 910.5576 912.315 914.2534 915.6843 917.4204 919.211 924.3397 930.1711 931.726 933.1506 934.6354 937.1284 937.9067 938.6844 938.2437 938.338 940.5124 945.3063 948.3203 948.0356 949.1785 951.8069 954.6586 957.3042 959.9497 961.189 962.0408 962.3476 962.6135 962.6926 962.122 962.3947 963.204 964.7963 966.5024 969.7738 972.1378 974.425 976.7122 978.9598 980.4908 982.4248 984.3588 986.2927 988.8099 990.6015 991.4142 992.0206 992.3144 993.2764 994.1913 994.6179 995.0446 995.3854 995.7329 996.2292 996.4694 995.7893 995.9656 996.1898 994.2833 992.3766 990.6398 988.8679 986.7401 984.6114 982.4827 980.3539 978.7429 977.0986 975.3257 973.5527 971.7798 969.8426 965.5462 961.1375 958.739 956.739 954.739 953.0442 954.6304 956.2056 956.485 956.5527 956.6205 957.0112 959.4503 961.2396 963.2232 964.6676 965.8329 968.2951 970 970.6294 972.8 974.9706 977.1412 978.98 980.9985 982.7757 984.5529 986.2938 987.8271 988.796 990.9186 993.3871 994.9368 996.2669 997.597 998.9271 1000.626 1003.341 1005.988 1008.635 1008.473 1005.062 1001.549 999.0404 996.421 993.9102 992.8345 992.4204 992.2224 993.3568 994.7806 996.6548 998.6223 1000.686 1001.573 1002.466 1003.279 1003.826 1004.448 1004.949 1005.221 1005.591 1005.676 1004.765 1003.901 1003.047 1002.144 1001.241 1000.639 999.9341 997.7097 995.3964 993.0159 990.6353 988.6464 986.5303 984.0023 980.9991 978.3742 975.938 973.5017 971.0555 968.6645 966.3344 964.0374 961.7404 959.5952 957.9247 956.5399 955.1258 953.0291 950.8956 947.2502 942.6089 938.199 933.9489 929.7321 925.9427 921.9382 917.9526 913.9719 909.98 907.0247 904.1453 901.3687 898.2312 894.7419 891.0802 889.0948 887.8091 886.4803 885.1516 885.9143 887.1947 888.4751 889.7555 893.9211 898.5833 902.2404 905.4112 908.4619 911.5666 914.7263 917.814 921.0446 925.5186 930.184 931.9789 933.8948 935.8106 937.7264 939.6423 941.6661 943.7148 945.7634
971.2307 973.0159 974.2126 975.4094 977.7416 980.2091 982.7021 985.1982 987.787 990.5291 994.1728 997.8165 1000.708 1002.567 1004.409 1006.25 1008.092 1009.933 1012.083 1014.244 1016.343 1018.048 1019.753 1020.549 1020.71 1020.565 1020.127 1018.839 1016.378 1013.307 1010.236 1006.815 1003.265 999.8606 997.3889 994.9172 992.0649 988.3873 983.2686 979.2793 976.8382 974.3876 971.8547 968.8622 965.8645 969.5767 972.3815 975.0286 977.0621 979.0956 980.4977 981.7043 982.6627 983.5238 984.3731 985.9737 987.451 989.0038 990.5857 991.9872 993.6925 995.2325 997.1948 999.3431 1001.738 1004.151 1006.575 1008.713 1010.021 1010.182 1010.134 1009.941 1009.647 1008.004 1006.229 1004.455 1002.68 1000.987 999.3054 997.2284 995.1948 993.4013 991.6882 989.8905 987.0944 984.2195 981.619 979.4794 977.7197 975.9601 974.1504 972.2653 970.3801 968.2066 965.9603 963.756 961.7722 959.6826 956.7069 954.8671 953.3111 951.4667 950.1522 948.1661 945.7128 942.9666 940.1067 937.9855 935.888 933.7457 931.5253 929.415 927.5447 925.4285 923.1904 920.8052 918.3875 917.2853 916.3889 914.9576 912.8407 910.6685 908.8547 907.3427 907.1174 907.4027 907.688 908.2315 909.0784 909.9877 912.0247 913.7678 915.5226 916.9802 918.6216 919.971 926.5624 931.4624 933.6757 934.3243 936.3569 938.1365 940.7778 943.3987 944.3345 944.6071 944.4562 946.376 949.144 950.1791 951.2618 952.2495 954.645 957.1496 960.1124 961.9954 963.4496 964.2914 964.7817 965.0475 965.2258 964.8843 965.437 965.6337 966.9078 968.614 970 972.7518 975.3022 977.8525 980.4703 983.3796 985.7628 987.8707 989.9786 991.2619 992.509 993.2844 994.0051 994.3535 995.0808 996.0724 996.7505 997.1608 997.5015 997.8423 998.2592 998.0002 997.32 997.6492 996.2932 994.3866 992.48 990.5734 988.5128 986.2571 983.9576 981.6519 979.3444 977.4191 976.282 975.0724 973.2996 971.5266 969.549 966.302 962.5956 959.175 957.2091 955.016 952.7673 952.9517 953.4975 954.4035 955.3095 956.2155 957.1215 958.1372 960 961.051 962.0604 964.7087 967.861 970 970 971.0464 973.2171 974.7459 976.6476 978.9755 980.9951 982.7725 984.243 984.8637 985.6548 989.6277 991.8015 993.1316 994.9574 996.8004 998.6435 1000 1000.327 1003.63 1007.329 1008.818 1005.313 1001.518 998.2725 995.4505 992.6285 990.3126 990 990 990.538 992.0908 993.657 996.2954 998.7321 1000.434 1001.272 1001.959 1002.581 1003.189 1003.575 1003.926 1004.334 1004.742 1004.913 1004.82 1003.912 1002.903 1002.143 1001.282 1000.691 1000.076 997.9443 995.5638 993.1832 990.8026 987.8103 984.8071 981.8039 979.0271 976.5833 974.1265 971.6699 969.2636 967.0369 964.8178 962.5988 960.3268 959.1133 957.5022 955.3187 953.0979 950.8233 946.6354 941.6222 937.5734 933.5842 929.4141 925.7024 921.9383 917.9526 913.9847 910.0165 907.232 904.4553 901.6786 898.5823 894.9205 891.2589 889.1574 887.8734 886.5894 885.2888 885.7011 886.9767 888.2524 889.528 892.7404 897.0475 901.0392 904.0898 907.1405 910.1979 913.3577 916.2282 919.0821 923.2222 927.7482 931.0949 933.274 935.4531 937.6322 939.55 941.5686 943.6418 945.7151
968.9092 970.9899 972.3177 974.783 977.2482 979.7135 982.3143 985.0023 987.6902 990.5097 993.983 997.3307 1000.384 1002.281 1004.177 1006.074 1007.928 1009.769 1011.89 1013.599 1015.418 1017.22 1018.6 1018.732 1018.94 1018.57 1017.899 1016.111 1014.657 1011.586 1008.331 1004.881 1001.501 998.7728 996.2618 993.774 991.2863 988.1649 983.4692 979.0563 975.8975 973.4977 971.0981 967.8475 964.0191 967.9415 971.306 973.4493 975.6995 977.589 978.5914 979.2936 979.977 980.832 981.9407 983.3599 984.7592 986.298 988.1152 989.9667 991.5123 993.2776 995.4259 997.4821 999.6888 1002.19 1004.637 1006.318 1007.755 1008.814 1008.53 1009.227 1009.5 1008.747 1006.972 1005.198 1003.423 1001.876 1000.393 998.5235 996.5995 994.8864 992.9818 991.0716 988.6723 985.6628 983.3635 981.0641 979.0547 977.295 975.4148 973.5297 971.6445 969.7133 967.4761 965.4923 963.5085 961.3785 959.2378 956.9868 954.7358 953.8528 953.1349 951.9236 950.033 946.6032 943.6576 941.4502 939.2149 936.8819 934.5489 932.4145 930.1423 927.6569 925.1758 922.8621 920.5588 918.7427 916.5705 914.3983 912.226 910.0538 908.3867 906.7323 906.9662 908.0503 909.2186 909.9158 911.3937 913.446 915.4983 917.219 918.8747 921.0447 925.6962 930.5366 933.0209 934.7463 936.9764 936.9767 938.702 941.1381 944.6533 948.798 950.4499 950.6859 950.1193 950 951.7403 953.6964 954.7791 955.7542 956.5332 959.2323 962.0079 963.8669 965.6425 966.542 967.1773 967.478 967.639 967.6467 968.1993 968.6313 969.033 970 970.777 973.7592 976.7415 979.6187 982.5319 985.509 988.2377 990.4545 991.7404 993.0263 994.2905 995.1621 995.9672 996.3901 997.1051 997.9488 998.7754 999.2769 999.6177 999.9584 1000.077 999.5309 998.8508 998.3031 996.3965 994.4594 992.3282 990.1971 987.9507 985.6881 983.3824 981.0768 978.7676 976.4556 974.5786 973.8212 972.6555 971.2734 969.0852 965.8383 962.6368 959.6859 957.4332 955.1806 952.7748 952.3403 953.3915 954.4427 955.4197 956.3257 957.2318 958.1378 959.4025 960 960.5696 963.6776 966.7856 969.4435 970 970 971.2231 971.9874 974.3153 976.4874 980 980.6589 982.3627 984.254 986.2047 989.9411 991.3343 993.0844 994.9274 996.7705 998.6135 1000 1000 1003.007 1006.746 1009.016 1005.095 1001.175 997.8865 994.8474 991.8083 990 990 989.5218 988.5273 989.2602 990.7865 993.1377 995.4747 997.834 1000.078 1000.714 1001.336 1001.919 1002.261 1002.67 1003.078 1003.486 1003.661 1003.796 1003.988 1003.651 1002.746 1001.99 1001.269 1000.547 1000.01 997.6647 995.2294 992.7725 990.3155 987.113 983.7438 980.6941 978.5489 976.3279 974.1071 972.1852 970.38 968.2481 965.6763 963.2763 960.7601 958.0896 955.4734 952.8572 950.4093 945.6298 940.4562 936.5353 932.9479 929.0961 925.3944 922.0297 918.291 914.5536 910.7661 907.7784 904.9783 901.9607 898.7323 895.0992 891.4375 889.22 887.936 886.652 885.3752 885.524 886.8054 888.0704 889.3181 891.5452 894.965 899.0704 902.4999 905.6585 908.8172 911.8844 914.8649 917.821 920.8813 924.8205 929.3464 931.8644 934.0435 936.3666 938.9927 941.342 943.5192 945.6208
